ply
format ascii 1.0
element vertex 781
property float x
property float y
property float z
end_header
-0.16837018138439835 -0.15694257177936563 0.1116795336183173
-0.16863231372124177 -0.1575440336446241 0.11172385327880964
-0.1688927035965057 -0.15814149743698414 0.11176787833503243
-0.16915136832652763 -0.15873500288873044 0.11181161171472134
-0.16940832499895284 -0.15932458920741413 0.11185505630694628
-0.1696635904764973 -0.15991029508448681 0.11189821496274745
-0.1699171814006367 -0.16049215870376476 0.11194109049575929
-0.17016911419522268 -0.16107021774972663 0.11198368568282165
-0.1704194050700289 -0.16164450941564973 0.11202600326457948
-0.17066807002422754 -0.16221507041158698 0.11206804594607059
-0.17091512484979862 -0.16278193697218932 0.11210981639730205
-0.17116058513487295 -0.1633451448643765 0.11215131725381541
-0.17140446626701095 -0.16390472939486003 0.11219255111724104
-0.1716467834364181 -0.16446072541752105 0.11223352055584185
-0.17188755163909886 -0.16501316734064703 0.11227422810504642
-0.17212678567995016 -0.16556208913402992 0.11231467626797212
-0.17236450017579624 -0.16610752433592935 0.11235486751593823
-0.17260070955836546 -0.16664950605990303 0.11239480428896911
-0.17283542807721114 -0.1671880670015085 0.11243448899628825
-0.1730686698025769 -0.16772323944487771 0.11247392401680245
-0.17330044862820823 -0.16825505526916845 0.11251311169957748
-0.1735307782741115 -0.16878354595489434 0.11255205436430432
-0.17375967228926112 -0.16930874259013673 0.11259075430175697
-0.17424543271251725 -0.16970713881398433 0.1126849808425078
-0.17447054043379928 -0.17022586440920415 0.11272300317612349
-0.17469425902258195 -0.1707413889654794 0.11276079087514276
-0.17491660129775077 -0.17125374202193 0.1127983461047688
-0.17893640335573435 -0.17984291871123254 0.11348870186895002
-0.17913401260102146 -0.18030023534465042 0.11352204645353171
-0.17972001289688588 -0.18165638486132524 0.11362092814503341
-0.18169151520136717 -0.18226045624705495 0.11402046356444079
-0.18048577869270294 -0.183428556174569 0.11375014346748105
-0.18067450327783857 -0.18386531150852126 0.1137819888544849
-0.18086215957227825 -0.18429959455377115 0.11381365397811381
-0.18104875662113976 -0.18473142624295688 0.11384514036464102
-0.18123430336771607 -0.18516082727306876 0.11387644952315779
-0.18141880865490417 -0.18558781810875596 0.11390758294581463
-0.18160228122660987 -0.18601241898557755 0.11393854210805815
-0.18178472972912912 -0.18643464991319939 0.1139693284688644
-0.1821926165972442 -0.1867333298347354 0.11404905482875188
-0.18237230313787597 -0.18715095861994815 0.114079344905235
-0.18255099568044927 -0.18756627714753005 0.11410946742171553
-0.18272870245017833 -0.1879793045345847 0.1141394237647323
-0.18290543158177675 -0.1883900596878736 0.11416921530556828
-0.18308119112069887 -0.18879856130670108 0.11419884340045994
-0.1832559890243606 -0.1892048278857522 0.1142283093908028
-0.18365094021077663 -0.18948839350205063 0.11430560261847623
-0.18382313260229322 -0.18989032929650543 0.11433460025596928
-0.1839943911080424 -0.19029008519140408 0.11436344062471948
-0.1841647233048746 -0.19068767887282054 0.11439212500068774
-0.18433413668789728 -0.19108312783602263 0.11442065464606926
-0.18472000021550403 -0.19135654017890064 0.11449623068070572
-0.1851033360860688 -0.1916281614931263 0.11457131164316642
-0.18548416905520507 -0.1918980093198503 0.11464590238213743
-0.18586252355630628 -0.192166100971907 0.1147200076831941
-0.18623842370577143 -0.19243245353751723 0.11479363226982459
0.07101321389033138 0.09511571337168562 0.06577682961854056
0.06530276618543418 0.09044145864151854 0.06690543221897313
0.027456440366307955 0.03540893647261878 0.07407722289412802
0.021915110978464103 0.029034969081215722 0.07514885753632991
0.011427434355265997 0.01697141823825543 0.07717706354954496
0.008427850842274542 0.014075293568294955 0.07776424946393166
-0.09908849891041407 -0.09270425908485735 0.09877313915010773
-0.10031590657586295 -0.09387083914018673 0.09901364820389238
-0.10152813157854501 -0.09502298895194744 0.09925118223319356
-0.10322301652160618 -0.09605541734607373 0.09959070207961977
-0.10440135987434834 -0.09717889466879068 0.09982155182590569
-0.10605326334509074 -0.09818223595399 0.10015249882251501
-0.10719907836716366 -0.0992781421603974 0.10037693183507554
-0.10880965563041728 -0.1002535557959576 0.10069963562881357
-0.11087000675191924 -0.10110785334379468 0.1011174987708541
-0.11243087795042744 -0.10205590299807496 0.1014302081055031
-0.11350762808686213 -0.1030987880602236 0.10164094628131143
-0.11411214580649026 -0.10423816755532372 0.101752166342896
-0.11471092684435619 -0.10536673469975563 0.10186233096130963
-0.11484898948865485 -0.10659484242615286 0.10187533477598873
-0.11543929538306949 -0.10770288176033072 0.10198399845555639
-0.1160240723293566 -0.10880054292945912 0.10209164436475558
-0.11660339764363842 -0.1098879710605059 0.10219828673596039
-0.11673220313384511 -0.11107820277080963 0.10220984906096434
-0.11730349393763681 -0.1121461649477015 0.10231506859823793
-0.11830941563030514 -0.11309026846584722 0.10251233101976963
-0.11886767937165904 -0.1141381627696621 0.10261509637054575
-0.1198547274191255 -0.11506163811033163 0.10280869497700205
-0.12083085533144647 -0.11597489664792907 0.1030001517191875
-0.12179624333286873 -0.11687810699901585 0.10318950194610374
-0.12275106770347885 -0.11777143409002422 0.10337678023314875
-0.12369550088651243 -0.1186550392576553 0.10356202040316448
-0.12421229938045511 -0.11964524413364627 0.10365689481516763
-0.1251396076431287 -0.12051009723343792 0.10383881108902081
-0.12605697658378284 -0.12136568043474558 0.10401877749949073
-0.12696456515199633 -0.12221214198173086 0.10419682522878101
-0.12786252892609137 -0.12304962697435629 0.10437298479773335
-0.12875102020204102 -0.12387827745130492 0.10454728608326899
-0.12923030762687057 -0.12481578566001725 0.10463502856043139
-0.13010321408224343 -0.12562733842726356 0.10480630528944361
-0.1313611345550074 -0.12631259792469884 0.1050593297008395
-0.1322131961089694 -0.1271072722588115 0.10522648432377299
-0.13305650033085742 -0.12789377907615015 0.10539192096220888
-0.13389118153979251 -0.12867224364930524 0.1055556659664289
-0.13471737132196981 -0.1294427887020066 0.10571774515057847
-0.13591475835601272 -0.13008729220961585 0.10595869321367068
-0.13672169900069006 -0.13084226030732518 0.10611696573617196
-0.13752056118269726 -0.1315896702511174 0.10627365375716974
-0.1383114656107493 -0.132329634975233 0.10642878095234937
-0.13909453060063354 -0.13306226517510614 0.1065823705280498
-0.139869872134214 -0.13378766936256822 0.10673444523283662
-0.1406376039166984 -0.1345059539194268 0.10688502736873436
-0.14139783743222706 -0.13521722314947415 0.10703413880212963
-0.14179140962070413 -0.13604038326356693 0.10710550663206278
-0.1425393680101415 -0.13673796588809248 0.10725223863983266
-0.14328012042184665 -0.1374288278648792 0.10739755700267853
-0.14401377049229536 -0.1381130658503799 0.10754148205166209
-0.1447404198801103 -0.13879077465640471 0.10768403372983637
-0.1454601683130198 -0.13946204729391715 0.1078252316014579
-0.14617311363348526 -0.1401269750155884 0.10796509486093776
-0.14687935184304085 -0.14078564735715088 0.10810364234154006
-0.1475789771453876 -0.1414381521775897 0.10824089252383584
-0.1486108098693731 -0.141965630378211 0.10844888392606108
-0.14929533621512958 -0.14260606850274538 0.10858314623169174
-0.14963909155023775 -0.14335951576365671 0.10864503896717834
-0.15031317274599884 -0.14398819689929593 0.10877727799096726
-0.15131136852009605 -0.14449225441275088 0.10897856877045692
-0.1519711484461051 -0.14510953995776768 0.10910797733832862
-0.1526249514494103 -0.1457212335351551 0.10923621359862183
-0.1532728583808919 -0.14632741078843864 0.10936329340934656
-0.15423664173785112 -0.14680961343332372 0.10955770211828203
-0.15487103997721405 -0.14740502519753293 0.10968210835569027
-0.1554997980612771 -0.14799514341801978 0.10980540855204146
-0.15612299087336756 -0.1485800383762118 0.10992761739204372
-0.15674069197703674 -0.14915977911486678 0.11004874930159564
-0.157352973645008 -0.14973443346524112 0.11016881845346281
-0.157959906887366 -0.1503040680735473 0.11028783877280603
-0.15856156147901024 -0.15086874842671982 0.11040582394256471
-0.1591580059863957 -0.15142853887751284 0.11052278740870097
-0.16005370445043693 -0.15186569660904864 0.11070360307644557
-0.16003242651439886 -0.1526516160800572 0.11068910827140155
-0.16121763650836318 -0.15296154671114595 0.11093180736970196
-0.161493013646999 -0.15362005036726423 0.110980685144462
-0.1620643957207592 -0.1541563185777762 0.11109273383802458
-0.16263095514453033 -0.15468806051069153 0.11120383680427859
-0.163192752718819 -0.1552153332300667 0.11131400596627455
-0.16345695954866396 -0.15585558555101597 0.11136079271969063
-0.16371936215466282 -0.15649146569693223 0.11140725997426464
-0.16427048037324848 -0.15700546553806516 0.11151537652710183
-0.1645281500461679 -0.1576326602711337 0.1115609699984328
-0.16449592756681308 -0.1583733163962116 0.11154477714015713
-0.16475129498224236 -0.15899214816721224 0.11158999857634483
-0.16500494780829816 -0.1596068249743669 0.11163491638650486
-0.16525690325536224 -0.16021738852358797 0.1116795336183173
-0.16550717830424963 -0.16082387996447867 0.11172385327880964
-0.1657557897100236 -0.16142633989957822 0.11176787833503243
-0.1660027540057349 -0.16202480839342265 0.11181161171472134
-0.16624808750608652 -0.16261932498142656 0.11185505630694628
-0.1664918063110269 -0.1632099286785892 0.11189821496274745
-0.16673392630927147 -0.16379665798802945 0.11194109049575929
-0.1669744631817559 -0.1643795509093532 0.11198368568282165
-0.16721343240502118 -0.1649586449468572 0.11202600326457948
-0.16745084925453346 -0.16553397711757314 0.11206804594607059
-0.16768672880793858 -0.16610558395915526 0.11210981639730205
-0.16792108594825425 -0.16667350153761526 0.11215131725381541
-0.16815393536700035 -0.16723776545490826 0.11219255111724104
-0.16838529156726897 -0.16779841085637237 0.11223352055584185
-0.16861516886673564 -0.1683554724380258 0.11227422810504642
-0.16884358140061295 -0.1689089844537245 0.11231467626797212
-0.16907054312454806 -0.1694589807221834 0.11235486751593823
-0.1692960678174648 -0.1700054946338642 0.11239480428896911
-0.1695201690843527 -0.17054855915773287 0.11243448899628825
-0.1697428603590021 -0.17108820684788945 0.11247392401680245
-0.16996415490668926 -0.17162446985007324 0.11251311169957748
-0.17018406582681006 -0.17215737990804586 0.11255205436430432
-0.17040260605546492 -0.17268696836985506 0.11259075430175697
-0.17061978836799552 -0.1732132661939817 0.1126292137742417
-0.1710953339011429 -0.17361786752608865 0.11272300317612349
-0.1713088895651983 -0.17413768418202236 0.11276079087514276
-0.1715211314378099 -0.17465430293319464 0.1127983461047688
-0.17479912020551458 -0.18192114925718947 0.11338749235638126
-0.17523402641202862 -0.1822727348357257 0.11347350284976052
-0.17518185629870942 -0.18285692917614332 0.11345516246945468
-0.17561286877718033 -0.18320313826896634 0.11354043145487162
-0.17580064063447792 -0.18366428938818102 0.11357360437755415
-0.17574764781473265 -0.18424027490293232 0.11355519791566954
-0.175934066691356 -0.18469606426892055 0.11358815792828506
-0.17611941209956902 -0.18514922903221287 0.11362092814503341
-0.17630369328489065 -0.18559979179786562 0.11365351020057965
-0.17648691938697128 -0.1860477749120893 0.11368590571087056
-0.1766690994411037 -0.18649320046594284 0.11371811627340189
-0.17685024237970848 -0.18693609029896507 0.11375014346748105
-0.17703035703379372 -0.1873764660027441 0.1137819888544849
-0.17744278703965677 -0.18769725611472518 0.11386371598701686
-0.17762010138855094 -0.18813272451569954 0.11389504142242035
-0.1775646181077958 -0.18868272060851332 0.11387644952315779
-0.17797174619387846 -0.18899633314095704 0.11395716514056814
-0.17814609334140696 -0.18942451435709762 0.11398796637206321
-0.17831946795773357 -0.1898503071223878 0.11401859579025873
-0.1784918781575851 -0.1902737313658812 0.11404905482875188
-0.1786633319656608 -0.19069480679553102 0.114079344905235
-0.17883383731787697 -0.1911135529012478 0.11410946742171553
-0.17900340206259158 -0.19152998895790652 0.1141394237647323
-0.17917203396180853 -0.1919441340283041 0.11416921530556828
-0.17933974069236208 -0.19235600696606825 0.11419884340045994
-0.17950652984708165 -0.19276562641851847 0.1142283093908028
-0.17989583841487072 -0.1930568901984423 0.11430560261847623
-0.1800601075736106 -0.19346212855593425 0.11433460025596928
-0.18022348581825132 -0.19386516910241303 0.11436344062471948
-0.18038598037700332 -0.19426602966927276 0.11439212500068774
-0.18054759840009543 -0.19466472789553368 0.11442065464606926
-0.18092802037175065 -0.19494566197087645 0.11449623068070572
-0.18130595033209418 -0.19522475574532766 0.11457131164316642
-0.18168141268762877 -0.19550202724260526 0.11464590238213743
-0.18205443152718143 -0.19577749425182975 0.1147200076831941
-0.18242503062705479 -0.1960511743313288 0.11479363226982459
0.06484131943044114 0.09193176797113373 0.06663104238560122
0.06065137322278419 0.08747963934162928 0.06746512518212563
0.00814992625431632 0.014238015748670119 0.07776424946393166
0.005264573628341429 0.011340606591365154 0.0783400992026898
-0.09673544644760154 -0.09472524054370024 0.09866520790724816
-0.09845386103357201 -0.09582192331431691 0.09901364820389238
-0.09964323537602368 -0.09699764673796657 0.09925118223319356
-0.10131752663691412 -0.09806314646484507 0.09959070207961977
-0.10247358870954429 -0.09920953783645306 0.09982155182590569
-0.10410547777348836 -0.10024511234191502 0.10015249882251501
-0.10522955901443024 -0.1013632993873079 0.10037693183507554
-0.10682067806660603 -0.1023701403997141 0.10069963562881357
-0.10838946410422573 -0.10336284934893178 0.10101780993840456
-0.1099363840511185 -0.10434172169874811 0.10133154946329348
-0.1114618919050192 -0.10530704473347308 0.10164094628131143
-0.11204392693323864 -0.10645807101116697 0.101752166342896
-0.11262043863331905 -0.10759817441391328 0.10186233096130963
-0.1127343668768582 -0.1088287552852269 0.10187533477598873
-0.11330280803010528 -0.10994816847252065 0.10198399845555639
-0.11386592502569182 -0.111057096964499 0.10209164436475558
-0.11442379231597549 -0.11215568737783588 0.10219828673596039
-0.11497648297157831 -0.11324408360819616 0.10230393953741117
-0.1150794251453835 -0.11442718832386242 0.10231506859823793
-0.11606661994310394 -0.11539085587285619 0.10251233101976963
-0.11660420577437189 -0.11644950665031326 0.10261509637054575
-0.11757293550062783 -0.11739217951341374 0.10280869497700205
-0.1185309477551687 -0.1183244231830323 0.1030001517191875
-0.11947841941751483 -0.11924640978098924 0.10318950194610374
-0.12041552349622495 -0.12015830766226415 0.10337678023314875
-0.1213424292342136 -0.12106028151748083 0.10356202040316448
-0.12225930221064904 -0.12195249247206397 0.10374525554680088
-0.1231663044395595 -0.12283509818219335 0.10392651804222205
-0.12365023928036817 -0.12381675530876132 0.10401877749949073
-0.12454103664382066 -0.12468086945226209 0.10419682522878101
-0.12542238728050206 -0.12553581983916945 0.10437298479773335
-0.12629444066877296 -0.12638175147032293 0.10454728608326899
-0.12715734314988622 -0.12721880630342425 0.10471975833528119
-0.12801123800985623 -0.12804712333245416 0.10489043019299872
-0.1288562655587765 -0.12886683866461418 0.1050593297008395
-0.1296925632076799 -0.12967808559488464 0.10522648432377299
-0.13052026554302876 -0.13048099467828322 0.10539192096220888
-0.1313395043989195 -0.13127569379990706 0.1055556659664289
-0.13253489896652307 -0.131951696534237 0.10579881203270822
-0.13333491326157532 -0.13273019206874792 0.10595869321367068
-0.13412687814295018 -0.13350085470246942 0.10611696573617196
-0.13491091448735965 -0.1342638020607753 0.10627365375716974
-0.13568714076332267 -0.13501914942562182 0.10642878095234937
-0.13682641944703128 -0.13565589895427013 0.10666057848836838
-0.13721662529930495 -0.13650749393237588 0.10673444523283662
-0.13833586896608338 -0.13712937462666397 0.10696219846043031
-0.13871623355917853 -0.13796676577420094 0.10703413880212963
-0.13945510631398772 -0.1386857643517866 0.1071818009743564
-0.1398276916417323 -0.13950962325471516 0.10725223863983266
-0.14055473946761768 -0.14021489286498212 0.10739755700267853
-0.14127481635194744 -0.14091340034343455 0.10754148205166209
-0.1423401532898159 -0.1414932094204898 0.1077583715687574
-0.1430443053426568 -0.14217842121250854 0.1078990948814302
-0.14374180741873185 -0.14285716189863723 0.10803848921017697
-0.14443275327837887 -0.14352952271725095 0.10817657329280486
-0.14511723492756815 -0.1441955931995462 0.10831336551651427
-0.14579534265874405 -0.14485546120928383 0.10844888392606108
-0.14646716509053123 -0.14550921298142738 0.10858314623169174
-0.14713278920634168 -0.14615693315971168 0.10871616981685894
-0.14779230039191849 -0.1467987048331766 0.10884797174572458
-0.14844578247184942 -0.14743460957169868 0.10897856877045692
-0.14942327188578852 -0.14795253781695938 0.1091776963069437
-0.14973498701948548 -0.14868913713403473 0.10923621359862183
-0.15069680351860867 -0.14919571809910814 0.10943217489046891
-0.1513250013542996 -0.14980894445524512 0.10955770211828203
-0.1519475892218709 -0.15041669454242254 0.10968210835569027
-0.1525646419349556 -0.15101904139128297 0.10980540855204146
-0.15317623298280403 -0.15161605673964942 0.10992761739204372
-0.1537824345594604 -0.15220781106100684 0.11004874930159564
-0.1543833175921719 -0.15279437359223386 0.11016881845346281
-0.15497895176905305 -0.1533758123606081 0.11028783877280603
-0.15556940556602833 -0.15395219421010642 0.11040582394256471
-0.1561547462730748 -0.15452358482702244 0.11052278740870097
-0.15673504001978614 -0.15509004876492108 0.11063874238530774
-0.15731035180027791 -0.15565164946895027 0.11075370185958536
-0.15788074549745446 -0.1562084492995297 0.11086767859669061
-0.15874769800116398 -0.15664883559580212 0.11104445375825713
-0.15870686058514652 -0.1574196855133079 0.11102922373605952
-0.15926456751295331 -0.15796239125687841 0.11114068029727366
-0.1601143795262381 -0.1583888504066237 0.11131400596627455
-0.16066110378012022 -0.15892254489420676 0.11142325304747873
-0.1614963208206298 -0.15934040348917702 0.11159361309080669
-0.16115675888202424 -0.16019979301294318 0.11151537652710183
-0.16169320297280654 -0.16072016829138558 0.11162259805264024
-0.16164571816502185 -0.16145978675041983 0.11160625550801156
-0.16159848211378847 -0.1621955306031174 0.11158999857634483
-0.16184001987912436 -0.16281506798262374 0.11163491638650486
-0.16207994133631598 -0.16343045957850566 0.1116795336183173
-0.16231826265513422 -0.16404174686575795 0.11172385327880964
-0.1625549997903809 -0.16464897076798538 0.11176787833503243
-0.16279016848544892 -0.1652521716665353 0.11181161171472134
-0.1630237842758125 -0.16585138940944963 0.11185505630694628
-0.16325586249244817 -0.16644666332023966 0.11189821496274745
-0.1634864182651888 -0.16703803220648875 0.11194109049575929
-0.16371546652601127 -0.16762553436828553 0.11198368568282165
-0.16394302201226024 -0.16820920760649302 0.11202600326457948
-0.1641690992698094 -0.16878908923085595 0.11206804594607059
-0.16439371265616046 -0.16936521606795096 0.11210981639730205
-0.16461687634348288 -0.16993762446898275 0.11215131725381541
-0.16483860432159472 -0.1705063503174297 0.11219255111724104
-0.16505891040088594 -0.17107142903654257 0.11223352055584185
-0.16527780821518595 -0.17163289559669928 0.11227422810504642
-0.16549531122457606 -0.17219078452261896 0.11231467626797212
-0.1657114327181486 -0.1727451299004389 0.11235486751593823
-0.16592618581671337 -0.1732959653846567 0.11239480428896911
-0.16613958347545316 -0.17384332420494128 0.11243448899628825
-0.16635163848652879 -0.17438723917281504 0.11247392401680245
-0.16656236348163536 -0.1749277426882105 0.11251311169957748
-0.1667717709345106 -0.1754648667459039 0.11255205436430432
-0.16697987316339602 -0.17599864294182843 0.11259075430175697
-0.16718668233345266 -0.17652910247927003 0.1126292137742417
-0.1676541937621629 -0.17694296068213555 0.11272300317612349
-0.16785750420901913 -0.17746686911114007 0.11276079087514276
-0.1683193012981824 -0.1778743764606595 0.1128534451693417
-0.1686583527311194 -0.17953056675959783 0.1129096382333632
-0.16885552303268975 -0.18003865271651434 0.11294628471231441
-0.16905149871848468 -0.1805436602813273 0.11298270915751352
-0.16924629061262386 -0.1810456173465903 0.11301891358075367
-0.16943990940885453 -0.18154455146890164 0.1130548999695968
-0.16963236567250833 -0.18204048987394694 0.11309067028773725
-0.16982366984242325 -0.18253345946145172 0.113126226475359
-0.17026452762580083 -0.18291034419336372 0.11321478544820711
-0.1704526880297859 -0.18339746988644517 0.11324973764471097
-0.17063973281632958 -0.18388170737399648 0.11328448260696572
-0.1708256718779769 -0.18436308226668138 0.11331902217258523
-0.17101051499065695 -0.18484161987325856 0.1133533581575212
-0.17119427181539634 -0.18531734520501708 0.11338749235638126
-0.1713769519000022 -0.18579028298013406 0.1134214265427417
-0.17155856468071612 -0.186260457627956 0.11345516246945468
-0.17173911948383874 -0.1867278932932051 0.11348870186895002
-0.1719186255273264 -0.1871926138401124 0.11352204645353171
-0.1720970919223599 -0.18765464285647926 0.11355519791566954
-0.17227452767488569 -0.18811400365766798 0.11358815792828506
-0.1724509416871315 -0.1885707192905242 0.11362092814503341
-0.1726263427590946 -0.18902481253723102 0.11365351020057965
-0.1728007395900053 -0.1894763059190975 0.11368590571087056
-0.17297414077976514 -0.18992522170028178 0.11371811627340189
-0.17314655483036054 -0.19037158189145106 0.11375014346748105
-0.17331799014725238 -0.19081540825337895 0.1137819888544849
-0.17348845504074192 -0.1912567223004818 0.11381365397811381
-0.1736579577273138 -0.19169554530429522 0.11384514036464102
-0.17382650633095592 -0.19213189829689192 0.11387644952315779
-0.17399410888445777 -0.19256580207424182 0.11390758294581463
-0.17439330792856228 -0.19288496323811852 0.11398796637206321
-0.17455829077160528 -0.1933140771691235 0.11401859579025873
-0.1747223558783885 -0.193740804103961 0.11404905482875188
-0.17488551088519522 -0.1941651639043054 0.114079344905235
-0.17504776334382316 -0.1945871762120878 0.11410946742171553
-0.17520912072274986 -0.19500686045252633 0.1141394237647323
-0.17536959040827832 -0.19542423583710694 0.11416921530556828
-0.17552917970566456 -0.19583932136651486 0.11419884340045994
-0.17568789584022568 -0.19625213583351792 0.1142283093908028
-0.1760714117634613 -0.1965509855267179 0.11430560261847623
-0.17622769438929595 -0.19695937027679294 0.11433460025596928
-0.17638312941600806 -0.19736554015138855 0.11436344062471948
-0.17653772372038276 -0.19776951312034718 0.11439212500068774
-0.17669148410501495 -0.19817130695964374 0.11442065464606926
-0.17706631791933064 -0.19845965449801356 0.11449623068070572
-0.17743869632839931 -0.19874611317248786 0.11457131164316642
-0.17780864338020777 -0.1990307014824056 0.11464590238213743
-0.1781761828097333 -0.1993134376863177 0.1147200076831941
-0.17854133804401984 -0.19959433980589195 0.11479363226982459
0.06435176409246501 0.09343982257155997 0.06635545957317188
0.05892244218747611 0.08865334222759963 0.06746512518212563
-0.09485732003456426 -0.09660587538604168 0.09866520790724816
-0.09655387508373242 -0.09773607897520625 0.09901364820389238
-0.09771994042612975 -0.09893492290257744 0.09925118223319356
-0.09937299278916825 -0.10003308332545996 0.09959070207961977
-0.10050632807919371 -0.10120194694201895 0.09982155182590569
-0.1016259149192752 -0.10235663111577317 0.1000496011421606
-0.10321948814256751 -0.10340939251397935 0.10037693183507554
-0.10479053581969272 -0.10444727287306438 0.10069963562881357
-0.106339532204934 -0.10547058549937335 0.10101780993840456
-0.10786693833205013 -0.10647963496538368 0.10133154946329348
-0.10937320247176341 -0.10747471741193504 0.10164094628131143
-0.10993253052139126 -0.10863694688916126 0.101752166342896
-0.11048655072491767 -0.10978814717662344 0.10186233096130963
-0.11103533828020903 -0.1109284745281999 0.10197145508933603
-0.11112265804103985 -0.11215108259763637 0.10198399845555639
-0.11166389808874866 -0.11327085105303916 0.10209164436475558
-0.11220009238083156 -0.1143801803733345 0.10219828673596039
-0.11273131114913584 -0.1154792158607918 0.10230393953741117
-0.11281100910953298 -0.11666411299211976 0.10231506859823793
-0.1137790965846707 -0.11764697318715586 0.10251233101976963
-0.11429579734711173 -0.11871597245488061 0.10261509637054575
-0.11524583544022782 -0.11967747954664495 0.10280869497700205
-0.11618536285516898 -0.12062834907379191 0.1030001517191875
-0.11668320503990096 -0.12166732804763389 0.10309912468843346
-0.11803357572077985 -0.1224988738351162 0.10337678023314875
-0.1185177591840656 -0.12351819973508676 0.10347299681635394
-0.11942012876615707 -0.12442859549332821 0.10365689481516763
-0.12031277421674103 -0.12532918062823675 0.10383881108902081
-0.121195851877476 -0.12622011287206036 0.10401877749949073
-0.12206951475640043 -0.12710154659377595 0.10419682522878101
-0.12293391261631398 -0.12797363288825672 0.10437298479773335
-0.12419554450554288 -0.12873523080723193 0.10463246521925758
-0.12503891201000483 -0.1295887795674127 0.10480432651069152
-0.1254729668099042 -0.13053527083978445 0.10489043019299872
-0.1263017402565372 -0.13137141585767065 0.1050593297008395
-0.1271219517227532 -0.13219892274013156 0.10522648432377299
-0.1279337332062442 -0.13301792465891996 0.10539192096220888
-0.1287372140052783 -0.13382855206235444 0.1055556659664289
-0.12953252078735444 -0.13463093274458515 0.10571774515057847
-0.13070368595300622 -0.13532193948900334 0.10595869321367068
-0.13148036987765904 -0.13610799965545795 0.10611696573617196
-0.13224927824641047 -0.1368861903983644 0.10627365375716974
-0.1330105272419303 -0.13765662930296665 0.10642878095234937
-0.13376423074368501 -0.13841943162350076 0.1065823705280498
-0.1345105003847296 -0.13917471034067225 0.10673444523283662
-0.1352494456068272 -0.13992257621744125 0.10688502736873436
-0.13561509329918078 -0.14076760703399127 0.10695734025081607
-0.1363421313114925 -0.14150111172610952 0.10710550663206278
-0.13706213099275535 -0.1422275154843542 0.10725223863983266
-0.13813409739879948 -0.1428420519472561 0.1074728612367488
-0.13883798911682246 -0.14355444114892843 0.10761630017534801
-0.13918090747444262 -0.1443651375406286 0.10768403372983637
-0.14022573538332406 -0.14495894049109084 0.1078990948814302
-0.1409097791618297 -0.14565124214602043 0.10803848921017697
-0.14158739322605646 -0.14633703646622107 0.10817657329280486
-0.14225866780672 -0.14701641477168684 0.10831336551651427
-0.14292369145407263 -0.14768946668166155 0.10844888392606108
-0.14358255107684326 -0.14835628015404906 0.10858314623169174
-0.14423533198009966 -0.14901694152373232 0.10871616981685894
-0.14488211790206754 -0.14967153553983714 0.10884797174572458
-0.14585712813134188 -0.15021450572118622 0.10904871367461902
-0.1464901248769676 -0.15085716180427872 0.1091776963069437
-0.14711739204912927 -0.15149400088236187 0.10930551145227482
-0.14773900708924403 -0.15212510157858525 0.10943217489046891
-0.1483550460493817 -0.15275054110555011 0.10955770211828203
-0.14896558362328327 -0.15337039529680113 0.10968210835569027
-0.1495706931765512 -0.15398473863747758 0.10980540855204146
-0.15017044677603897 -0.1545936442941511 0.10992761739204372
-0.1507649152184628 -0.15519718414387423 0.11004874930159564
-0.15135416805826096 -0.15579542880246486 0.11016881845346281
-0.15193827363472284 -0.15638844765204898 0.11028783877280603
-0.15251729909840964 -0.156976308867885 0.11040582394256471
-0.15309131043688956 -0.15755907944449127 0.11052278740870097
-0.15366037249980685 -0.15813682522109782 0.11063874238530774
-0.1542245490233049 -0.1587096109064422 0.11075370185958536
-0.15508917809488215 -0.15917175035781855 0.11093180736970196
-0.15533849497128854 -0.15984055533017738 0.110980685144462
-0.15588838651171075 -0.16039883804795674 0.11109273383802458
-0.15643363678921413 -0.1609524086785593 0.11120383680427859
-0.15697430431750745 -0.16150132662859526 0.11131400596627455
-0.1575104466308173 -0.16204565031024593 0.11142325304747873
-0.15804212030429765 -0.16258543716198476 0.11153158957593187
-0.15856938097393078 -0.16312074366878238 0.11163902688830438
-0.1585070592810728 -0.1638631868732615 0.11162259805264024
-0.15815251553670012 -0.1647080268135681 0.11154477714015713
-0.15838339534100124 -0.16533640506960462 0.11158999857634483
-0.15861272497078874 -0.16596056426473027 0.11163491638650486
-0.15884051998611193 -0.16658054674823888 0.1116795336183173
-0.15906679573946692 -0.16719639430453315 0.11172385327880964
-0.15929156737924574 -0.1678081481625123 0.11176787833503243
-0.15951484985311706 -0.168415849004773 0.11181161171472134
-0.15973665791133967 -0.16901953697662778 0.11185505630694628
-0.15995700611001076 -0.1696192516949456 0.11189821496274745
-0.1601759088142502 -0.17021503225681853 0.11194109049575929
-0.1603933802013222 -0.17080691724805805 0.11198368568282165
-0.16060943426369637 -0.1713949447515256 0.11202600326457948
-0.16082408481204857 -0.17197915235530073 0.11206804594607059
-0.1610373454782039 -0.17255957716069026 0.11210981639730205
-0.1612492297180224 -0.17313625579008277 0.11215131725381541
-0.16145975081422942 -0.1737092243946513 0.11219255111724104
-0.16166892187919119 -0.17427851866190788 0.11223352055584185
-0.16187675585763717 -0.17484417382311318 0.11227422810504642
-0.16208326552933064 -0.1754062246605445 0.11231467626797212
-0.1622884635116883 -0.17596470551462534 0.11235486751593823
-0.16249236226234987 -0.1765196502909195 0.11239480428896911
-0.1626949740816993 -0.17707109246699285 0.11243448899628825
-0.16289631111533845 -0.1776190650991452 0.11247392401680245
-0.16309638535651377 -0.17816360082901617 0.11251311169957748
-0.16329520864849806 -0.17870473189006636 0.11255205436430432
-0.16349279268692735 -0.1792424901139381 0.11259075430175697
-0.1639542609885058 -0.17966878696541486 0.1126849808425078
-0.1641484461845764 -0.18019986251427514 0.11272300317612349
-0.16434143307005505 -0.18072766081302466 0.11276079087514276
-0.16453323270292664 -0.1812522121040583 0.1127983461047688
-0.16472385600553607 -0.18177354625881054 0.11283567100364575
-0.16491331376666182 -0.18229169278342577 0.11287276768426491
-0.16510161664355133 -0.1828066808243251 0.1129096382333632
-0.1652887751639192 -0.18331853917367172 0.11294628471231441
-0.16547479972790952 -0.18382729627473682 0.11298270915751352
-0.165659700610022 -0.18433298022716818 0.11301891358075367
-0.165843487961004 -0.18483561879216392 0.1130548999695968
-0.16602617180970788 -0.1853352393975526 0.11309067028773725
-0.16620776206491528 -0.1858318691427824 0.113126226475359
-0.16638826851712882 -0.18632553480382102 0.1131615704494864
-0.16656770084033143 -0.18681626283796765 0.11319670410432878
-0.166746068593715 -0.18730407938857999 0.11323162931161881
-0.1669233812233776 -0.1877890102897167 0.11326634792094502
-0.16709964806399133 -0.18827108107069818 0.11330086176007803
-0.16727487834044025 -0.1887503169605866 0.11333517263529164
-0.16744908116942991 -0.18922674289258742 0.1133692823316777
-0.16762226556106835 -0.1897003835083734 0.11340319261345588
-0.1680405052884327 -0.19006309372526725 0.11348870186895002
-0.16821085422291818 -0.19053124828474266 0.11352204645353171
-0.1683802165443461 -0.19099669142484385 0.11355519791566954
-0.16854860079924436 -0.19145944663322004 0.11358815792828506
-0.16871601543571285 -0.19191953712701948 0.11362092814503341
-0.1688824688048362 -0.19237698585677238 0.11365351020057965
-0.1690479691620725 -0.1928318155102069 0.11368590571087056
-0.16921252466861803 -0.1932840485160004 0.11371811627340189
-0.16937614339274903 -0.19373370704746598 0.11375014346748105
-0.16953883331114006 -0.19418081302617657 0.1137819888544849
-0.16970060231016054 -0.19462538812552754 0.11381365397811381
-0.16986145818714904 -0.19506745377423865 0.11384514036464102
-0.17002140865166598 -0.19550703115979728 0.11387644952315779
-0.17018046132672562 -0.19594414123184337 0.11390758294581463
-0.1703386237500068 -0.19637880470549762 0.11393854210805815
-0.1704959033750439 -0.19681104206463398 0.1139693284688644
-0.1706523075723977 -0.19724087356509756 0.11399994347096788
-0.1708078436308067 -0.1976683192378688 0.11403038854108699
-0.17119423285645446 -0.1979858084815181 0.11410946742171553
-0.1713473206917672 -0.19840857916824653 0.1141394237647323
-0.17149956632784707 -0.19882902401930486 0.11416921530556828
-0.17165097669555662 -0.1992471621751133 0.11419884340045994
-0.17180155864991647 -0.19966301256664565 0.1142283093908028
-0.1721791341351014 -0.19996933299942798 0.11430560261847623
-0.1723273700057453 -0.20038070675919134 0.11433460025596928
-0.17247480191885894 -0.20078984943257555 0.11436344062471948
-0.17262143639715224 -0.20119677912094602 0.11439212500068774
-0.1727672798929648 -0.20160151373038193 0.11442065464606926
-0.17313638110217616 -0.20189716360545185 0.11449623068070572
-0.17350306445843194 -0.202190876781572 0.11457131164316642
-0.1738673536419357 -0.20248267222657296 0.11464590238213743
-0.17422927202466854 -0.2027725686613993 0.1147200076831941
-0.1745888426753876 -0.2030605845641135 0.11479363226982459
0.05846892980411089 0.0900586494036072 0.0671945882541653
0.05325229024538164 0.08528716495672506 0.06827978128153375
-0.09294263923796964 -0.0984492796443707 0.09866520790724816
-0.09410378796286636 -0.09968702479026711 0.09890666202655157
-0.09575898794104998 -0.10083407089302221 0.09925118223319356
-0.09688725178822241 -0.10204055656588518 0.09948579609893847
-0.09850033613940262 -0.10315535418645375 0.09982155182590569
-0.0995970404488932 -0.10433179299583323 0.1000496011421606
-0.10116964040630666 -0.1054156330534628 0.10037693183507554
-0.10272001127978131 -0.10648415276754047 0.10069963562881357
-0.1042486210818658 -0.10753767469355488 0.10101780993840456
-0.10575592477858162 -0.10857651239529353 0.10133154946329348
-0.1072423647408901 -0.10960097075599523 0.10164094628131143
-0.10777877027556645 -0.1107739555325466 0.101752166342896
-0.1078465811011178 -0.11201821240287141 0.10176563882327169
-0.10837562258160033 -0.11316991273925206 0.10187533477598873
-0.10889968561664637 -0.11431077521604066 0.10198399845555639
-0.10941884015024644 -0.11544095209826807 0.10209164436475558
-0.10993315482227353 -0.11656059281195821 0.10219828673596039
-0.11044269699873677 -0.11766984400998823 0.10230393953741117
-0.11094753280119607 -0.11876884963612372 0.10240861647931358
-0.11144772713536605 -0.11985775098728785 0.10251233101976963
-0.11194334371893447 -0.12093668677412067 0.10261509637054575
-0.11287432407048728 -0.12191665754278416 0.10280869497700205
-0.11379500458781944 -0.12288578647526766 0.1030001517191875
-0.11470555525782572 -0.12384425250358375 0.10318950194610374
-0.11517621239588602 -0.12488276686125621 0.1032870845330256
-0.11607022299574338 -0.12582086433532114 0.10347299681635394
-0.11695454735177122 -0.1267487979020777 0.10365689481516763
-0.11782934203558498 -0.12766673185425015 0.10383881108902081
-0.11827665040598631 -0.1286672004141191 0.10393154548999049
-0.11913590422463585 -0.1295659932513228 0.10411023151208407
-0.12039806395758262 -0.13036212668176753 0.10437298479773335
-0.12123623986531662 -0.13124163605446715 0.10454728608326899
-0.12206562035981497 -0.13211191628050895 0.10471975833528119
-0.122886343160725 -0.1329731118709908 0.10489043019299872
-0.12369854312738165 -0.13382536433564599 0.1050593297008395
-0.12450235233268198 -0.13466881226036037 0.10522648432377299
-0.12569188841586965 -0.13540871284017872 0.10547412458708044
-0.1260853132459913 -0.13632983466273005 0.1055556659664289
-0.12725325106102667 -0.13705223812939124 0.10579881203270822
-0.1280220904694482 -0.1378615357099395 0.10595869321367068
-0.12878319413303607 -0.1386626904722229 0.10611696573617196
-0.12915606415729555 -0.13955201533244105 0.10619423816405635
-0.13028265657695545 -0.14024105822327032 0.10642878095234937
-0.1310212408043822 -0.14101850852269598 0.1065823705280498
-0.131752540294168 -0.14178829074412877 0.10673444523283662
-0.13247666229267677 -0.14255051777749334 0.10688502736873436
-0.13319371195136945 -0.14330530030757246 0.10703413880212963
-0.13390379237770636 -0.1440527468675881 0.1071818009743564
-0.13424375187251594 -0.14489059520525352 0.10725223863983266
-0.1349425553857226 -0.14562385922998822 0.10739755700267853
-0.13563465876411565 -0.14635009271219293 0.10754148205166209
-0.13632015790937757 -0.1470693962828066 0.10768403372983637
-0.13699914690164341 -0.14778186866139376 0.1078252316014579
-0.1376717180425442 -0.14848760670131037 0.10796509486093776
-0.13868747083333194 -0.1490881539472106 0.10817657329280486
-0.13934527966186513 -0.14978057825268182 0.10831336551651427
-0.14034152012251705 -0.1503679203521785 0.1085207824009778
-0.14098502365043997 -0.15104742275023902 0.10865459867296676
-0.14162259511448563 -0.15172066123294378 0.1087871813749148
-0.14225431616439604 -0.15238772201768405 0.10891854748584942
-0.14288026695830572 -0.1530486897468003 0.10904871367461902
-0.1435005261966484 -0.1537036475233854 0.1091776963069437
-0.1441151711551431 -0.15435267694611599 0.10930551145227482
-0.14472427771688823 -0.15499585814314248 0.10943217489046891
-0.1453279204035923 -0.15563326980506614 0.10955770211828203
-0.14592617240596784 -0.15626498921703394 0.10968210835569027
-0.1465191056133145 -0.15689109228997627 0.10980540855204146
-0.14710679064231705 -0.157511653591016 0.10992761739204372
-0.14736886680436992 -0.15822638577844145 0.10998188116990994
-0.14826669243643342 -0.1587364426036897 0.11016881845346281
-0.1485223298197799 -0.1594405467818943 0.11022174534320833
-0.14940641831660711 -0.15993992702157528 0.11040582394256471
-0.14996887908447995 -0.16053385296603462 0.11052278740870097
-0.15083729282625846 -0.16102297291930806 0.11070360307644557
-0.15076979281115366 -0.1618062766617202 0.11068910827140155
-0.15131964136637685 -0.16238505956558263 0.11080345001220808
-0.1521708445406278 -0.16285900075928506 0.110980685144462
-0.15270967086223264 -0.16342797009943838 0.11109273383802458
-0.15324394931495375 -0.16399213715385666 0.11120383680427859
-0.15377373723505489 -0.16455156246630864 0.11131400596627455
-0.1542990909990275 -0.165106305567099 0.11142325304747873
-0.15452241922506663 -0.16575637527037027 0.11146947194188388
-0.15474422871912175 -0.16640202420844002 0.11151537652710183
-0.15496453492078155 -0.16704329732327128 0.1115609699984328
-0.15577118663993628 -0.1674796251134414 0.1117289356190983
-0.15510727371418415 -0.16841356119397005 0.11158999857634483
-0.15532430683835277 -0.16904210166700379 0.11163491638650486
-0.15553988763308674 -0.1696664361100439 0.1116795336183173
-0.15575403062769128 -0.1702866066007981 0.11172385327880964
-0.1559667501583115 -0.17090265465757154 0.11176787833503243
-0.1561780603711318 -0.17151462124853178 0.11181161171472134
-0.15638797522551168 -0.1721225468007909 0.11185505630694628
-0.15659650849705983 -0.172726471209308 0.11189821496274745
-0.15680367378064777 -0.1733264338456167 0.11194109049575929
-0.15700948449336405 -0.17392247356638113 0.11198368568282165
-0.1572139538774111 -0.17451462872178494 0.11202600326457948
-0.15741709500294535 -0.1751029371637567 0.11206804594607059
-0.15761892077086231 -0.1756874362540354 0.11210981639730205
-0.15781944391552755 -0.17626816287208008 0.11215131725381541
-0.15801867700745537 -0.17684515342282647 0.11219255111724104
-0.1582166324559353 -0.17741844384429467 0.11223352055584185
-0.15841332251160897 -0.17798806961505076 0.11227422810504642
-0.15860875926899706 -0.17855406576152577 0.11231467626797212
-0.15880295466897854 -0.1791164668651955 0.11235486751593823
-0.15899592050122252 -0.1796753070696233 0.11239480428896911
-0.15918766840657456 -0.1802306200873705 0.11243448899628825
-0.15937820987939705 -0.1807824392067752 0.11247392401680245
-0.15956755626986643 -0.18133079729860452 0.11251311169957748
-0.15975571878622696 -0.1818757268225816 0.11255205436430432
-0.1599427084970022 -0.18241725983379053 0.11259075430175697
-0.1601285363331656 -0.18295542798896214 0.1126292137742417
-0.1603132130902703 -0.18349026255264256 0.11266743501603774
-0.16049674943054013 -0.1840217944032482 0.11270542023383012
-0.16094349686541237 -0.18444701778508069 0.1127983461047688
-0.16112384958826662 -0.1849719932577713 0.11283567100364575
-0.16130309956776628 -0.18549375883595814 0.11287276768426491
-0.1614812568869577 -0.18601234386963894 0.1129096382333632
-0.16165833150633346 -0.18652777735207896 0.11294628471231441
-0.161834333265689 -0.18704008792521468 0.11298270915751352
-0.16200927188594502 -0.1875493038849591 0.11301891358075367
-0.16218315697093744 -0.18805545318641156 0.1130548999695968
-0.16235599800917472 -0.18855856344897345 0.11309067028773725
-0.16252780437556402 -0.18905866196137217 0.113126226475359
-0.16269858533310605 -0.18955577568659512 0.1131615704494864
-0.16286835003456002 -0.19004993126673564 0.11319670410432878
-0.16303710752407863 -0.19054115502775265 0.11323162931161881
-0.1632048667388144 -0.19102947298414572 0.11326634792094502
-0.16337163651049724 -0.19151491084354771 0.11330086176007803
-0.1635374255669843 -0.19199749401123606 0.11333517263529164
-0.1637022425337828 -0.19247724759456508 0.1133692823316777
-0.16386609593554577 -0.1929541964073201 0.11340319261345588
-0.16402899419754174 -0.1934283649739956 0.11343690522427763
-0.16443826112422372 -0.1937964548222196 0.11352204645353171
-0.1643519585150252 -0.19436845804578182 0.11350374430660562
-0.16475772198188005 -0.19473110399370902 0.11358815792828506
-0.16491607273093042 -0.195194392039357 0.11362092814503341
-0.16507351425598848 -0.19565501996114096 0.11365351020057965
-0.16523005436555893 -0.19611301060446495 0.11368590571087056
-0.16538570077898795 -0.1965683865538818 0.11371811627340189
-0.16554046112773255 -0.1970211701368055 0.11375014346748105
-0.16569434295660723 -0.19747138342716022 0.1137819888544849
-0.16584735372501064 -0.19791904824896778 0.11381365397811381
-0.16599950080813067 -0.19836418617987397 0.11384514036464102
-0.16615079149812945 -0.19880681855461566 0.11387644952315779
-0.16630123300530855 -0.19924696646842927 0.11390758294581463
-0.16645083245925418 -0.1996846507804021 0.11393854210805815
-0.16659959690996382 -0.20011989211676764 0.1139693284688644
-0.16674753332895342 -0.2005527108741457 0.11399994347096788
-0.16689464861034664 -0.20098312722272865 0.11403038854108699
-0.16704094957194576 -0.20141116110941476 0.11406066509014565
-0.16741949024980107 -0.20173383421764646 0.1141394237647323
-0.1675634531700469 -0.20215718650468478 0.11416921530556828
-0.16770662626355698 -0.2025782161453473 0.11419884340045994
-0.16784901601241387 -0.20299694220151818 0.1142283093908028
-0.16822050555543464 -0.20331061532123113 0.11430560261847623
-0.16836063754965133 -0.20372481955599964 0.11433460025596928
-0.16850000953772723 -0.20413677735330227 0.11436344062471948
-0.1686386276857835 -0.20454650693905183 0.11439212500068774
-0.16877649809341813 -0.2049540263425309 0.11442065464606926
-0.16913972445904846 -0.20525686461391174 0.11449623068070572
-0.1695005714557693 -0.2055577190976722 0.11457131164316642
-0.16985906238687526 -0.20585660922282445 0.11464590238213743
-0.17021522025234456 -0.20615355416549191 0.1147200076831941
-0.17056906775375777 -0.2064485728530105 0.11479363226982459
0.056689794012865946 0.09118901317632705 0.0671945882541653
0.05283726685371237 0.0865941215129562 0.06801413121884081
-0.09099214194917768 -0.10025474294164063 0.09866520790724816
-0.0921287696351566 -0.10151504255219365 0.09890666202655157
-0.09376113364474731 -0.10269435885062264 0.09925118223319356
-0.09486549642323894 -0.10392275949107077 0.09948579609893847
-0.09595636548038297 -0.10513615084628378 0.09971754332141151
-0.09752978512357835 -0.10626674686379681 0.1000496011421606
-0.0985902414132181 -0.10745004478270723 0.10027490067903896
-0.10012447420302947 -0.10854950189616577 0.10059867782007526
-0.10163714914858668 -0.10963351029455742 0.10091790549689343
-0.10360415694677971 -0.1106315459318048 0.10133154946329348
-0.10459961780715679 -0.11175646533872863 0.10154309069633075
-0.10558347622579936 -0.11286827341963818 0.101752166342896
-0.10609188171330214 -0.11404033242200001 0.10186233096130963
-0.10613318069937053 -0.11527548441737018 0.10187533477598873
-0.10663474745983148 -0.11642641406507873 0.10198399845555639
-0.10713161642440841 -0.11756656382666245 0.10209164436475558
-0.10762385328649407 -0.11869608444670673 0.10219828673596039
-0.10811152252029993 -0.11981512387217952 0.10230393953741117
-0.1081446489264909 -0.12100223543080299 0.10231506859823793
-0.10907341007214841 -0.12202233732501452 0.10251233101976963
-0.10954775149222071 -0.12311079383077592 0.10261509637054575
-0.1104593153383768 -0.12410885060938207 0.10280869497700205
-0.11136079416342445 -0.12509586545853685 0.1030001517191875
-0.11225235440901557 -0.12607202061256167 0.10318950194610374
-0.11313415887427034 -0.12703749431762784 0.10337678023314875
-0.11400636681488005 -0.12799246094026256 0.10356202040316448
-0.11486913403899149 -0.12893709107233142 0.10374525554680088
-0.11530050302627315 -0.1299550821591608 0.10383881108902081
-0.11572808586832878 -0.13096413829190867 0.10393154548999049
-0.116569530547597 -0.13187962481455487 0.10411023151208407
-0.11781581858447568 -0.1327003807868053 0.10437298479773335
-0.11863656795527339 -0.1335961738072648 0.10454728608326899
-0.11985579597250226 -0.13439690803012835 0.10480432651069152
-0.12065656997256927 -0.1352736627657056 0.10497439548737718
-0.12144903614533123 -0.1361413213931033 0.10514270004153148
-0.12223332311099136 -0.13700002473653922 0.10530926748960866
-0.12300955684835266 -0.13784991072820407 0.10547412458708044
-0.12377786076227776 -0.13869111448212224 0.10563729754276319
-0.12453835574909192 -0.1395237683657602 0.10579881203270822
-0.12529116026000148 -0.14034800206946274 0.10595869321367068
-0.12603639036259864 -0.14116394267379326 0.10611696573617196
-0.12677415980051843 -0.14197171471485137 0.10627365375716974
-0.12788375217000086 -0.14268261762905532 0.10650751713345605
-0.12822776038260644 -0.14356323890754114 0.1065823705280498
-0.12894380790658394 -0.14434722796998967 0.10673444523283662
-0.12965282763288202 -0.14512352240836748 0.10688502736873436
-0.13035492251992517 -0.14589223495021847 0.10703413880212963
-0.13068270920622205 -0.14674373095443774 0.10710550663206278
-0.13173873965148375 -0.14740735435115493 0.10732803491197407
-0.1324206579981745 -0.1481539759193978 0.1074728612367488
-0.1327356289550338 -0.14898435549583908 0.10754148205166209
-0.13340687586986955 -0.14971697658908512 0.10768403372983637
-0.13407174798446822 -0.15044264001442137 0.1078252316014579
-0.13508393135736593 -0.15106995162491849 0.10803848921017697
-0.13573410368947736 -0.15178181498595708 0.10817657329280486
-0.1363781932717902 -0.15248701844084145 0.10831336551651427
-0.13701628506848562 -0.1531856550155041 0.10844888392606108
-0.13764846246869894 -0.1538778160113851 0.10858314623169174
-0.13861698537362582 -0.15447143068742317 0.1087871813749148
-0.13923549009816913 -0.15515076341364173 0.10891854748584942
-0.13984834528705303 -0.1558238909900707 0.10904871367461902
-0.14045562799420835 -0.15649089804865357 0.1091776963069437
-0.1410574138786579 -0.1571518676892409 0.10930551145227482
-0.14165377723593897 -0.15780688151410333 0.10943217489046891
-0.14224479102868093 -0.15845601966151626 0.10955770211828203
-0.14283052691636305 -0.15909936083844417 0.10968210835569027
-0.1434110552842789 -0.15973698235235367 0.10980540855204146
-0.14398644527173143 -0.1603689601421816 0.10992761739204372
-0.144556764799483 -0.16099536880848447 0.11004874930159564
