ply
format ascii 1.0
element vertex 743
property float x
property float y
property float z
end_header
0.01059420276811382 -0.10056393465679048 -0.015030750636218726
0.00968134420536168 -0.10078183678335695 -0.014079381367169352
0.00877355896032686 -0.10099852789349162 -0.013133299443570112
0.008694235344138462 -0.1004470470971166 -0.01291437707887333
0.0077911905146032245 -0.10066418823283874 -0.011973613337855571
0.007711486049786456 -0.10011373600972423 -0.011754518032707773
0.007631691309314584 -0.09956266032799721 -0.011535174573679974
0.006733067504897217 -0.09978189374741361 -0.010599770217829707
0.0066528958108332675 -0.09923184547060424 -0.010380257820716943
0.006572633460880897 -0.09868117521473124 -0.010160497205182362
0.005678406581933942 -0.09890248605304508 -0.00923042219337289
0.005597771141325494 -0.09835284202867642 -0.009010496605623641
0.0055170446697725 -0.09780257750029225 -0.008790322739526346
0.004627190781993862 -0.09802595100487849 -0.007865547239173154
0.004546095050914939 -0.09747671152961865 -0.007645212330583906
0.0044649079189571506 -0.09692685302090195 -0.007424629088278123
0.003579403252003052 -0.09715227455031863 -0.006505123473578345
0.0034978506601350406 -0.0966034399114819 -0.006284383082700518
0.003416206302520805 -0.09605398770526902 -0.006063394307237624
0.00333447002418627 -0.0955039168887315 -0.005842156727717596
0.003252641669808168 -0.09495322641657117 -0.005620669923723065
0.002370923024762217 -0.09518396757383543 -0.004706596595262846
0.0022887325690978816 -0.0946343047991873 -0.004484957248799215
0.0022064496768272046 -0.09408402383887407 -0.0042630686326502465
0.0021240741919223843 -0.09353312364943256 -0.004040930326062675
0.0012464001538245312 -0.09376752426528279 -0.0031321769653874787
0.0011636661161620876 -0.09321765307233085 -0.002909890327170428
0.0010808391299361175 -0.09266716411988155 -0.002687353958318983
0.0009979190384222514 -0.09211605636630568 -0.00246456743775203
0.0009149056845436376 -0.09156432876763079 -0.0022415303434416556
0.0008317989108698465 -0.09101198027753488 -0.002018242252409763
0.0007485985596159678 -0.09045900984733954 -0.0017947027407257954
-0.00012583151698633555 -0.09070201484501458 -0.0008915704437243432
-0.00020938747540381886 -0.09015008225433332 -0.0006678879505110369
-0.00029303736374013123 -0.08959752920540559 -0.0004439540033160938
-0.0003767813404721293 -0.0890443546514054 -0.00021976817789093328
-0.0004606195644334121 -0.08849055754315041 4.669950968094749e-06
-0.0005445521948152787 -0.08793613682909554 0.00022936080942204118
-0.0006285793911677273 -0.08738109145532605 0.00045430482459252186
-0.0007127013134005239 -0.08682542036555102 0.0006795024245638825
-0.000796918121784132 -0.08626912250109675 0.0009049540383865295
-0.0008812299769508092 -0.08571219680089978 0.0011306600960789837
-0.0017531812577893102 -0.08596885539984328 0.00202780632132582
-0.0018378463291317537 -0.08541298408380299 0.0022536487804261096
-0.0019226067969692756 -0.0848564864389307 0.002479745707853087
-0.002007462822624942 -0.08429936140605418 0.002706097533933083
-0.0020924145677858053 -0.08374160792361177 0.0029327046899630393
-0.002177462194503918 -0.08318322492764565 0.003159567608213898
-0.0022626058651972897 -0.08262421135179462 0.0033866867219324304
-0.002347845742651025 -0.08206456612728802 0.0036140624653449582
-0.002433181990018296 -0.08150428818293831 0.0038416952736592958
-0.0025186147708213535 -0.08094337644513444 0.0040695855830679695
-0.0026041442489526945 -0.08038182983783526 0.004297733830751105
-0.002689770588675963 -0.07981964728256213 0.004526140454878758
-0.0027754939546271035 -0.0792568276983926 0.0047548058946143
-0.002861314511815316 -0.07869337000195264 0.004983730590116531
-0.0029472324256243354 -0.07812927310741086 0.005212914982543393
-0.0030332478618131653 -0.0775645359264705 0.005442359514053863
-0.003119360986517411 -0.07699915736836282 0.005672064627811502
-0.003205571966250209 -0.07643313633984022 0.005902030767986899
-0.0032918809679034072 -0.07586647174516903 0.0061322583797609465
-0.0033782881587485214 -0.07529916248612234 0.006362747909327171
-0.0034647937064379297 -0.0747312074619732 0.006593499803895009
-0.0035513977790058715 -0.07416260556948728 0.006824514511692692
-0.0028470105038932852 -0.07272714630904625 0.0063931296758033
-0.0029336526303139487 -0.0721548278986876 0.006625073958678285
-0.0030203939399453816 -0.07158185432922926 0.006857283758798238
-0.0031072346031945086 -0.07100822447504107 0.007089759532348805
-0.003194174790858789 -0.07043393720791286 0.007322501736561404
0.012253580327100791 -0.10186473826241468 -0.01749704656788581
0.012175778300717699 -0.10130816112897631 -0.01727937398791829
0.011234343134997549 -0.101519524496023 -0.016334398731036148
0.010298163353379144 -0.10172970796697131 -0.015394698620146308
0.010219637424494707 -0.10117584553413286 -0.015176919972906489
0.009288358876310479 -0.10138652020828337 -0.01424252651766833
0.009209433042484255 -0.10083369116394197 -0.014024575897729263
0.00828302153749809 -0.10104485063177895 -0.013095451354443177
0.008203700102790104 -0.10049305126305727 -0.012877332414226728
0.007282121760004159 -0.10070468918556866 -0.011953439383618314
0.007202408983220804 -0.10015391579849697 -0.011735155732249702
0.007122605921367917 -0.09960251858905289 -0.011516624846304335
0.0062055303226611624 -0.09981627482570521 -0.010598012359459785
0.006125339894370585 -0.09926590245337188 -0.010379320691685456
0.005213035018202528 -0.09948011848758015 -0.009465869098055468
0.005132461399154825 -0.09893076728059688 -0.009247020175001341
0.005051796870269146 -0.0983807962500309 -0.009027924328445736
0.004971041277600591 -0.09783020434628567 -0.008808581140253458
0.00406289772968163 -0.09804815230727582 -0.007900441100176014
0.003981762623983115 -0.09749858293588107 -0.0076809448814103565
0.003900536073027608 -0.09694839415921214 -0.007461201274193585
0.0029968221670149675 -0.09716841575567361 -0.006558253546650961
0.0029152199813964053 -0.0966192483513438 -0.006338360731475534
0.0028335259742270497 -0.09606946300519881 -0.006118220485436032
0.0027517399904385814 -0.09551905867365776 -0.005897832390670932
0.0018521518802912251 -0.09574277842909767 -0.005000150400397141
0.0017699938922742797 -0.09519339680753888 -0.004779617265189606
0.0016877435560965215 -0.09464339766376981 -0.004558836243806541
0.0016054007159670147 -0.09409277995603352 -0.004337806918065068
0.0015229652157442292 -0.09354154264022838 -0.00411652886884134
0.0006272116148778456 -0.09377058790549253 -0.0032242000203340226
0.0005444075095096673 -0.09322037712876788 -0.003002781459126247
0.0004615103768595419 -0.09266954821103626 -0.0027811141425357344
0.00037852006007035865 -0.09211810011002536 -0.0025591976511258885
0.00029543640193227527 -0.09156603178111783 -0.0023370315645168116
0.0002122592448814964 -0.09101334217734558 -0.002114615461382252
0.00012898843099948265 -0.09046003024938257 -0.0018919489194472172
-0.0007634814441859622 -0.09069769695426458 -0.0010051916907361513
-0.0008471178844555172 -0.09014542042359783 -0.0007823899432459203
-0.0009308483451180571 -0.08959252304804252 -0.000559337731869558
-0.0010146729848030667 -0.08903900378012025 -0.00033603463402887
-0.0010985919624971474 -0.08848486156999491 -0.00011248022619447795
-0.001182605437544934 -0.08793009536546609 0.00011132591611667797
-0.0012667135696500936 -0.08737470411196235 0.00033538421834444776
-0.0013509165188764077 -0.0868186867525346 0.0005596951068876366
-0.0014352144456487442 -0.08626204222784922 0.0007842590091071133
-0.002324927468339566 -0.08651169590655394 0.0016651839102088117
-0.0024095884305330995 -0.08595610077161048 0.001889876873594376
-0.002494344730880463 -0.08539987997150694 0.002114822867559263
-0.002579196530515332 -0.08484303244878974 0.0023400223197574954
-0.002664143990934578 -0.08428555714362065 0.002565475658807048
-0.002749187273999504 -0.08372745299377071 0.002791183314293122
-0.0028343265419367714 -0.08316871893461306 0.0030171457167705307
-0.0029195619573393755 -0.08260935389911614 0.0032433632977665328
-0.003004893683167864 -0.08204935681783732 0.0034698364897836065
-0.003090321882751171 -0.08148872661891557 0.0036965657263022256
-0.003175846719787795 -0.0809274622280649 0.003923551441783357
-0.0032614683583467724 -0.08036556256856753 0.004150794071671848
-0.0033471869628687867 -0.07980302656126692 0.004378294052398479
-0.0034330026981671674 -0.07923985312456083 0.004606051821383295
-0.003518915729428959 -0.07867604117439436 0.004834067817038046
-0.0036049262222160178 -0.07811158962425319 0.005062342478769355
-0.0036910343424660236 -0.07754649738515645 0.005290876246981324
-0.0037772402564935775 -0.07698076336564957 0.0055196695630782
-0.003863544130991242 -0.07641438647179766 0.005748722869467593
-0.003949946133030707 -0.07584736560717814 0.005978036609563198
-0.004036446430063706 -0.07527969967287362 0.006207611227787457
-0.004123045189923263 -0.07471138756746515 0.006437447169574673
-0.00420974258082471 -0.07414242818702471 0.0066675448813737215
-0.004296538771366681 -0.07357282042510821 0.006897904810651112
-0.003574007076111524 -0.0721389522211422 0.006481856061904823
-0.003660831935754047 -0.07156562159989077 0.006713151540186757
-0.0037477562447125606 -0.07099163428494198 0.006944711944633863
-0.0038347801739490317 -0.07041698914738237 0.007176537730677168
0.011835640692519037 -0.10193141263663674 -0.01739615447669446
0.011757900069596663 -0.10137452669822886 -0.017179251136760054
0.01079790369074246 -0.1015801140367632 -0.016251839381133948
0.009843266310458537 -0.10178455372278808 -0.015329604726569801
0.009764780419867766 -0.10123037729428055 -0.015112611857770297
0.00881513648188556 -0.10143533778697633 -0.014195594312569115
0.00873624017948875 -0.10088219201637277 -0.013978438053191489
0.007791554858627495 -0.10108766670059038 -0.013066600494769376
0.007712252540976003 -0.10053554790222677 -0.0128492844136745
0.0067724913270013065 -0.1007415302351769 -0.011942590058269864
0.006692787344476231 -0.10019043474201655 -0.01172511768187634
0.006612993086842309 -0.09963871506165686 -0.011507398989780204
0.005677814695951217 -0.09984684241590083 -0.01060590489356883
0.005597622828164825 -0.09929614492067104 -0.010388033761028037
0.00466730496425577 -0.09950476089303376 -0.00949161337441684
0.004586719751923526 -0.09895508193759517 -0.00927359324682886
0.004506043616672797 -0.0984047827887809 -0.009055327130855217
0.003580254442370409 -0.09861551618801323 -0.008164045018652033
0.0034991889451747443 -0.09806623445671658 -0.007945633688450415
0.003418032132635626 -0.09751633399301582 -0.007726976331192625
0.0033367838503743225 -0.09696581375087543 -0.0075080725309425445
0.0024152048404294107 -0.09718028572327711 -0.006622004928608427
0.002333570913401431 -0.09663078427371738 -0.006402960041927419
0.0022518451291061586 -0.09608066450646341 -0.006183668678500287
0.00217002733241492 -0.0955299253772996 -0.00596413042207683
0.0012526426100965826 -0.09574811946413642 -0.005083257081858417
0.001170442864667831 -0.09519840048683828 -0.004863581841348885
0.00108815072414159 -0.09464806360813147 -0.004643659678964462
0.0010057660326477647 -0.09409710778561928 -0.0044234901781490255
9.255979408850923e-05 -0.09431900760797363 -0.0035477909462751644
9.796828866828755e-06 -0.09376907328094988 -0.0033274885384272923
-7.305906521640204e-05 -0.09321852147035972 -0.003106938768103973
-0.000156008044764247 -0.09266735113562405 -0.0028861412184516544
-0.000239050266731905 -0.0921155612338243 -0.0026650954716793684
-0.00032218588842757023 -0.09156315071969584 -0.002443801109056898
-0.0004054150675135426 -0.09101011854562155 -0.002222257710911002
-0.0013153028615315587 -0.09124064562910231 -0.0013520730074358944
-0.001398907308785155 -0.09068864380675032 -0.001130401954566762
-0.0014826056876697108 -0.09013602179691843 -0.000908481848875542
-0.0015663981565759016 -0.08958277855382554 -0.0006863122704008906
-0.0016502848742507015 -0.08902891302933802 -0.0004638927982368868
-0.0017342659997984372 -0.08847442417296303 -0.00024122301053014494
-0.0018183416926817325 -0.08791931093184194 -1.830248447709515e-05
-0.0019025121127225764 -0.08736357225074362 0.00020486920367834838
-0.0028093500883976247 -0.08760441242426004 0.0010693963036783605
-0.0028938929697806537 -0.08704971552159496 0.0012926899612315523
-0.0029785309492531 -0.08649439466792636 0.0015162347907329288
-0.003063264187361997 -0.08593844880988458 0.001740031216217297
-0.003148092845015882 -0.08538187689172749 0.0019640796626743673
-0.003233017083485973 -0.08482467785533393 0.0021883805560518055
-0.0033180370644070034 -0.0842668506401967 0.002412934323257343
-0.0034031529497784707 -0.08370839418341625 0.0026377413921621073
-0.0034883649019655377 -0.08314930741969367 0.002862802191603009
-0.003573673083699991 -0.08258958928132387 0.0030881171513855166
-0.0036590776580815165 -0.08202923869818907 0.0033136867022863226
-0.0037445787885784787 -0.08146825459775162 0.003539511276056284
-0.003830176639029112 -0.08090663590504743 0.0037655913054229773
-0.003915871373642535 -0.08034438154267903 0.003991927224093639
-0.004001663156999832 -0.07978149043080862 0.00421851946675772
-0.004087552154055013 -0.07921796148715121 0.00444536846909005
-0.00417353853013612 -0.07865379362696756 0.0046724746677528906
-0.004259622450946396 -0.0780889857630575 0.004899838500399767
-0.004345804082565186 -0.07752353680575275 0.005127460405677409
-0.004432083591449032 -0.0769574456629098 0.005355340823228971
-0.004518461144432828 -0.07639071123990304 0.005583480193696755
-0.0046049369087309 -0.07582333243961792 0.005811878958725203
-0.0046915110519379355 -0.07525530816244336 0.00604053756096351
-0.004778183742030234 -0.07468663730626496 0.006269456444068622
-0.004864955147366734 -0.074117318766458 0.006498636052708201
-0.0049518254366900105 -0.07354735143587993 0.006728076832563157
-0.005038794779127526 -0.07297673420486339 0.006957779230330946
-0.005125863344192683 -0.07240546596120917 0.007187743693728321
-0.004385392172859465 -0.0709702539178168 0.006788043366756119
-0.004472480549382665 -0.07039524930830549 0.007018951802260809
0.01141546238602198 -0.10199517391215263 -0.01730297295267541
0.0113377993974519 -0.10143797877694916 -0.017086837226536644
0.010359607043100516 -0.10163763675743373 -0.016177316990522383
0.009386875262917871 -0.1018361801849309 -0.015272873979539192
0.009308445984390998 -0.10128168919643318 -0.015056665642918743
0.008340797992589175 -0.10148078379827707 -0.01415734856697215
0.008261947973474279 -0.10092732065177354 -0.013940985608464185
0.007299348322849911 -0.1011269596019145 -0.013046757977293544
0.007220082050453075 -0.1005745206397142 -0.012830243880560588
0.006262495614340627 -0.100774697186366 -0.011941069537023952
0.006182817528899015 -0.10022327876911744 -0.011724407744157228
0.006103049197680344 -0.09967123579891612 -0.011507500553678995
0.005150123992839678 -0.09987358474042823 -0.010623444772538737
0.0050699479808321984 -0.09932256122022404 -0.010406393664913527
0.004121971293785734 -0.0995254283446674 -0.009527322824155693
0.0040413919548356325 -0.09897542065628223 -0.009310131162037716
0.003960721699593883 -0.09842479240361768 -0.009092694446277527
0.0030173511902685524 -0.09862980400582633 -0.008218681145473472
0.002936281666900714 -0.09808019048738575 -0.008001107581495692
0.002855120823654189 -0.09752995786280311 -0.00778328893415442
0.002773868506142571 -0.096979105085411 -0.007565224789108871
0.0018347754119255322 -0.09718787988142374 -0.006696353044668979
0.0017531276080504227 -0.09663804323563044 -0.006478156112504407
0.0016713879312933305 -0.09608758789496871 -0.006259713657740973
0.0007368555881720334 -0.09629847457954174 -0.005395846701973128
0.0006547244234375443 -0.09574903425352654 -0.005177275102218271
0.0005725009925474506 -0.09519897668621485 -0.004958457959114537
0.0004901851399366913 -0.09464830083690864 -0.004739394858664425
0.00040777670969022184 -0.09409700566256918 -0.004520085385938899
-0.0005228098521825875 -0.0943132572737996 -0.0036614369206273145
-0.0006056062696208342 -0.09376298097821728 -0.0034420027078922444
-0.0006884956534818215 -0.09321208681509555 -0.003222322107518494
-0.0007714781604319376 -0.09266057374320807 -0.003002394704295308
-0.0008545539474898028 -0.09210844071898794 -0.002782220082078346
-0.0009377231720271995 -0.09155568669652045 -0.002561797823787293
-0.0018646625174633114 -0.09177893599811907 -0.001708485019385475
-0.0019482164653746858 -0.09122720721254504 -0.0014879428199798816
-0.002031864235473982 -0.0906748588942845 -0.0012671529751643873
-0.0021156059858785103 -0.09012188999924745 -0.0010461150675855069
-0.0021994418750609923 -0.0895682994809964 -0.0008248286789513393
-0.0022833720618507247 -0.08901408629073973 -0.0006032933900292914
-0.002367396705434427 -0.08845924937732527 -0.0003815087806427475
-0.0024515159653574065 -0.08790378768723339 -0.0001594744296691819
-0.0025357300015244194 -0.08734770016457075 6.281008496317186e-05
-0.003459882508463047 -0.08758292540773657 0.0009103809869214774
-0.0035444786674894563 -0.08702787707625853 0.0011327793866839908
-0.0036291699845346775 -0.08647220439847214 0.0013554279513635636
-0.003713956620246886 -0.08591590632034043 0.0015783271032949742
-0.003798838735636051 -0.08535898178545231 0.0018014772657640732
-0.003883816492075004 -0.08480142973501634 0.0020248788630106707
-0.003968890051300328 -0.08424324910785336 0.002248532320230978
-0.004054059575413632 -0.08368443884039042 0.002472438063580551
-0.004139325226882373 -0.08312499786665373 0.0026965965201770636
-0.004224687168540922 -0.08256492511826177 0.0029210081181026415
-0.004310145563591716 -0.08200421952441872 0.003145673286406969
-0.0043957005756061485 -0.0814428800119075 0.0033705924551097888
-0.004481352368525704 -0.08088090550508292 0.0035957660552037307
-0.004567101106663002 -0.08031829492586495 0.003821194518657145
-0.00465294695470278 -0.07975504719373155 0.004046878278416766
-0.004738890077703062 -0.07919116122571224 0.0042728177684104585
-0.00482493064109607 -0.07862663593638042 0.004499013423549997
-0.004911068810689451 -0.07806147023784715 0.004725465679734087
-0.004997304752667214 -0.0774956630397538 0.004952174973850781
-0.005083638633590792 -0.07692921324926488 0.005179141743780591
-0.005170070620400244 -0.07636211977106139 0.0054063664283991175
-0.005256600880415269 -0.07579438150733359 0.005633849467580165
-0.005343229581336123 -0.07522599735777374 0.0058615913021980715
-0.005429956891245008 -0.07465696621956924 0.0060895923741311475
-0.0055167829786069295 -0.07408728698739558 0.006317853126264122
-0.005603708012270836 -0.07351695855340867 0.006546374002491112
-0.005690732161470757 -0.07294597980723827 0.006775155447718617
-0.004932862902051763 -0.0715187985132622 0.006390086956554908
-0.005019896661038012 -0.07094409161610449 0.0066198141820083545
-0.005107030165738269 -0.07036872607165318 0.006849804688128958
0.010915638181613299 -0.10149849291416982 -0.017002167866355444
0.009919622101431644 -0.10169207049218437 -0.016110860273174432
0.00892916609300369 -0.10188456745991054 -0.01522452823638376
0.008850809978483767 -0.10132976146832517 -0.015009102883343561
0.00786552620691143 -0.1015228407305776 -0.014127804014362644
0.007786739205084076 -0.10096905968084524 -0.013912232991315554
0.0068065916143031785 -0.10116271419548786 -0.013035931443170945
0.006727378301457712 -0.1006099544586394 -0.01282021814697687
0.00575233116141452 -0.10080417725974972 -0.011948878400011853
0.0056726960658907005 -0.10025243522486052 -0.01173302618684613
0.004702713968901123 -0.10044721942179727 -0.010866613045044327
0.004622661571666589 -0.09989649149588081 -0.010650625230915811
0.004542518704591492 -0.09934514117426646 -0.010434393321872182
0.0035772441640434804 -0.09954211288026715 -0.009572983679536518
0.0034966881628678143 -0.09899177560113001 -0.009356619833623403
0.0034160412717321315 -0.09844081738584182 -0.009140011868079001
0.002455448716026168 -0.09863996126866745 -0.008283577666701125
0.0023743928242712237 -0.09809001502357229 -0.008066841394673063
0.002293245627992768 -0.09753944929753874 -0.007849860982439838
0.0013373096604902684 -0.09774075014000119 -0.006998374358074433
0.0012557575632569373 -0.09719119530619719 -0.006781269236358689
0.001174113752433592 -0.09664102244234338 -0.006563919957952913
0.0010923780732213922 -0.09609023050529714 -0.006346326110757083
0.00014076450437056076 -0.09629530208613662 -0.005499882815624524
5.8627741530620225e-05 -0.09574552244750204 -0.005282168222533246
-2.3601293753838792e-05 -0.09519512518638706 -0.005064209048854518
-0.00010592275705846588 -0.09464410926145111 -0.004846004882213928
-0.00018833680430895006 -0.09409247362901127 -0.004627555309309472
-0.0011359489430378539 -0.09430293279751711 -0.0037862643644651084
-0.0012187605213987984 -0.09375231334797568 -0.0035676983909026516
-0.0013016650832056442 -0.09320107564559074 -0.003348887004587797
-0.001384662785153437 -0.09264921864848677 -0.0031298297919526985
-0.0014677537842895938 -0.09209674131244594 -0.0029105263384994196
-0.001550938238014693 -0.09154364259090139 -0.002690976228798103
-0.0024948570905136414 -0.09176111977962312 -0.0018549622295594426
-0.0025784357705574135 -0.09120904361727702 -0.001635300465666012
-0.002662108300560656 -0.09065634753217733 -0.0014153920449980761
-0.002745874838687476 -0.09010303047957663 -0.0011952365518681507
-0.0028297355434575427 -0.08954909141237852 -0.0009748335696543875
-0.002913690573747088 -0.08899452928113108 -0.0007541826807976881
-0.0029977400887900435 -0.08843934303402037 -0.0005332834667989839
-0.003938261268005477 -0.08866549284746489 0.00029731099547414264
-0.0040227019354767135 -0.08811133806060692 0.0005183166916846171
-0.004107237479340317 -0.08755656063292244 0.0007395707069074997
-0.004191868059588946 -0.08700115951443535 0.0009610734598898274
-0.00427659383657511 -0.08644513365280732 0.0011828253703206615
-0.004361414971012362 -0.08588848199333138 0.0014048268588339186
-0.004446331623976146 -0.08533120347892512 0.001627078347010702
-0.004531343956904979 -0.08477329705012401 0.001849580257382466
-0.0046164521316012785 -0.08421476164507449 0.002072333013432931
-0.004701656310232574 -0.08365559619952759 0.0022953370396015527
-0.004786956655332464 -0.08309579964683197 0.002518592761285826
-0.004872353329801529 -0.08253537091792701 0.0027421006048438668
-0.004957846496908641 -0.08197430894133637 0.002965860997597547
-0.005043436320291764 -0.08141261264316083 0.0031898743678347996
-0.005129122963959051 -0.08085028094707147 0.0034141411448126158
-0.005214906592289972 -0.08028731277430307 0.0036386617587596537
-0.005300787370036336 -0.0797237070436469 0.0038634366408790144
-0.005386765462323279 -0.07915946267144391 0.004088466223351239
-0.00547284103465033 -0.07859457857157781 0.0043137509393363915
-0.005559014252892611 -0.0780290536554682 0.0045392912229778315
-0.005645285283301771 -0.07746288683206332 0.004765087509404187
-0.0057316542925069935 -0.07689607700783307 0.004991140234732461
-0.00581812144751627 -0.07632862308676241 0.005217449836070864
-0.0059046869157173415 -0.07576052397034372 0.005444016751521674
-0.005991350864878772 -0.07519177855756992 0.005670841420183814
-0.006078113463151111 -0.07462238574492752 0.005897924282155964
-0.006164974879067919 -0.07405234442638942 0.0061252657785393905
-0.006251935281546855 -0.07348165349340735 0.006352866351440417
-0.00633899483989081 -0.07291031183490537 0.006580726443973839
-0.006426153723788963 -0.07233831833727217 0.006808846500265503
-0.005651025189580855 -0.07091315746507237 0.006440089228804624
-0.0057381844859693415 -0.0703374296617888 0.00666916158044234
0.02138805951446765 -0.10306322999018197 -0.02721953042560027
0.0213149531292931 -0.10249155020134393 -0.02700529610360325
0.02124176080125864 -0.10191919835361674 -0.026790809930686832
0.021168482378725262 -0.10134617326120865 -0.026576071462481032
0.021095117709697048 -0.10077247373553666 -0.026361080253569924
0.02202709722785226 -0.09942358841337964 -0.026859533003747826
0.021953897466386874 -0.09884607206037896 -0.026643705020988007
0.021880611097321062 -0.09826787240862833 -0.026427621677509616
0.016693863201660886 -0.10040949074855465 -0.022266612369041705
0.015645435424756354 -0.10060330324364422 -0.021363718262595977
0.013642728190658163 -0.10155051303994977 -0.01978816436592168
0.010491579113389715 -0.10155604579114533 -0.01692527568075214
0.009478118425614926 -0.10174339426559412 -0.01605249483474297
0.008470315190822753 -0.10192969690254927 -0.015184586123055344
0.008392048764046936 -0.10137457558617319 -0.014969941903255901
0.007389504282896378 -0.10156149237834453 -0.014106972035001775
0.007310797008066486 -0.10100739302056638 -0.013892191276816124
0.006313474629028801 -0.10119491670462871 -0.013034125059025403
0.006234331169611612 -0.10064183570593938 -0.012819211070940029
0.0052421945725204255 -0.10082995909677722 -0.011966013632060735
0.005162619543170904 -0.10027789287540925 -0.011750969682779777
0.0041756327355218364 -0.10046660886516226 -0.0109026064690676
0.004095630702670716 -0.09991555385698758 -0.010687435788020394
0.0040155382568974884 -0.09936387608346864 -0.010472021935526932
0.0030333334984034427 -0.09955480807253692 -0.009628578337817995
0.002952818290389847 -0.09900414047185865 -0.009413041339826067
0.0028722122384424176 -0.09845285156233322 -0.009197261155121206
0.0018947635617047598 -0.0986459840647751 -0.008358709566471778
0.0018137389540834048 -0.09809570428173947 -0.008142809789448924
0.0017326230771782386 -0.09754480464205528 -0.00792666681448162
0.0007599046924412628 -0.09774012228802856 -0.007092979819433576
0.000678374432050835 -0.09719023072259625 -0.0068767207725583535
0.0005967524826281517 -0.0966397207484253 -0.0066602185204900355
0.0005150386894157838 -0.09608859132173397 -0.006443472652734428
-0.0004532934184908327 -0.09628770532523451 -0.00561475405743328
-0.000535417716512665 -0.09573758540219243 -0.0053978960129002496
-0.0006176342729760503 -0.09518684747439446 -0.005180794350026385
-0.0006999432434330183 -0.09463549049985542 -0.00496344865805981
-0.0016639055733460306 -0.09483838421829224 -0.004139679163257359
-0.0017466211919179853 -0.09428803816077502 -0.00392222516552071
-0.0018294296340765487 -0.09373707450411736 -0.003704527140593772
-0.001912331056159594 -0.09318549220812963 -0.0034865846774744247
-0.0019953256148562137 -0.09263329023028496 -0.0032683973642371744
-0.0020784134672078985 -0.09208046752571283 -0.0030499647880301572
-0.0021615947706092598 -0.09152702304719201 -0.0028312865350731964
-0.0031221330480018655 -0.09173858652078798 -0.002012870601304284
-0.003205717908537589 -0.09118616184603559 -0.0017940891494773181
-0.0032893966259728014 -0.09063311685718722 -0.0015750620293725759
-0.0033731693584833494 -0.09007945050883603 -0.001355788826968518
-0.0034570362646005742 -0.08952516175322459 -0.00113626912731285
-0.0035409975032125035 -0.08897024954023847 -0.0009165025145199679
-0.004497796817120939 -0.08918885331657078 -0.00010330516587953031
-0.004582158267078348 -0.08863496730427331 0.00011655995090240068
-0.004666614451199397 -0.08808045930257014 0.0003366719664510409
-0.004751165529147089 -0.087525328263173 0.0005570312968844748
-0.004835811660943504 -0.08696957313543657 0.0007776383592566216
-0.004920553006970627 -0.08641319286635177 0.0009984935715593724
-0.005005389727971515 -0.08585618640053944 0.0012195973527257542
-0.005090321985051244 -0.08529855268024325 0.0014409501226320953
-0.005175349939677998 -0.08474029064532346 0.0016625523021012445
-0.005260473753683895 -0.08418139923324966 0.001884404312904514
-0.005345693589266273 -0.08362187737909457 0.002106506577765066
-0.00543100960898861 -0.08306172401552694 0.002328859520360188
-0.0055164219757814215 -0.08250093807280481 0.0025514635653239304
-0.005601930852943582 -0.08193951847876876 0.002774319138250242
-0.005687536404143101 -0.08137746415883518 0.0029974266656951076
-0.005773238793418289 -0.08081477403598902 0.003220786575179796
-0.0058590381851788415 -0.08025144703077755 0.0034443992951932456
-0.005944934744206806 -0.0796874820613028 0.0036682652551949246
-0.006030928635657684 -0.07912287804321516 0.0038923848856176613
-0.006117020025061412 -0.07855763388970582 0.004116758617870087
-0.006203209078323585 -0.0779917485115007 0.0043413868843399095
-0.006289495961726399 -0.07742522081685249 0.004566270118396304
-0.006375880841929679 -0.07685804971153426 0.004791408754392712
-0.006462363885972072 -0.07629023409883218 0.005016803227669758
-0.006548945261272129 -0.07572177287953852 0.0052424539745582754
-0.0066356251356291945 -0.0751526649519445 0.005468361432381524
-0.0067224036772247225 -0.07458290921183319 0.005694526039458581
-0.0068092810546232785 -0.07401250455247244 0.005920948235107026
-0.006896257436773495 -0.07344144986460754 0.006147628459645421
-0.0069833329930094334 -0.0728697440364543 0.006374567154396771
-0.00707050789305147 -0.07229738595369162 0.006601764761691026
-0.007157782307007435 -0.07172437449945412 0.006829221724867801
-0.006365700281641823 -0.07030137214252696 0.0064770921015796235
0.021354986943202453 -0.10489710449706571 -0.027591333035703186
0.021282368697076143 -0.10432715655554142 -0.02737851385920262
0.020194986399485665 -0.10450468405144889 -0.026473928445982037
0.02012185523062593 -0.1039358075326986 -0.02626094130485182
0.020048638437122512 -0.10336626495254173 -0.02604770479059723
0.019975335868508665 -0.10279605514051957 -0.025834218464999142
0.019901947373964918 -0.10222517692342928 -0.02562048188881086
0.019828472802317892 -0.10165362912531606 -0.025406494621755343
0.01975491200203941 -0.10108141056746481 -0.025192256222522164
0.020698342200841963 -0.09974339535115254 -0.025666932478306398
0.02062495155284716 -0.09916738517488038 -0.025451849656808107
0.020551474322461766 -0.09859069545237964 -0.025236513092014717
0.02047791035637747 -0.09801332498040174 -0.025020922334631795
0.0173699858179589 -0.09974406205982853 -0.022755925406544336
0.015306392635940441 -0.10069029418345296 -0.021198855860193017
0.014246370043639489 -0.10087644840147375 -0.020320460744971208
0.01222085051092417 -0.10180708707552705 -0.018792607873158146
0.011179062135177997 -0.10198842177851916 -0.0179288989918778
0.01014311864602263 -0.10216873911483815 -0.017070035893652885
0.010065785615371498 -0.1016106152303381 -0.016856190297119905
0.009035266160704214 -0.10179158830075385 -0.016002243162695245
0.008010499386365583 -0.10197155112316561 -0.01515306302695238
0.00793233913649738 -0.10141611428181388 -0.014939197789026831
0.00691291566755739 -0.10159672384836324 -0.014094860651543056
0.006834304798699717 -0.10104230590039032 -0.013880868183072853
0.005820187401790883 -0.10122355472154573 -0.01304133951534528
0.0057411306627485476 -0.10067015209762895 -0.012827223034906715
0.00473228244109479 -0.10085203276410964 -0.011992468623858082
0.004652784531017362 -0.10029964191235827 -0.011778231311162596
0.0036491689206753636 -0.10048214709415709 -0.01094821725559772
0.0035692344896546685 -0.0999307644800135 -0.010733862251988274
0.003489209722110892 -0.09937875873028743 -0.010519264998756411
0.0024904489054645845 -0.09956350903157465 -0.009694085368038813
0.0024099919302690564 -0.09901251050586402 -0.00947937393103912
0.0014163964228283282 -0.09919786489251847 -0.008658870437509208
0.0013355118001066868 -0.09864787007570705 -0.008444047884487743
0.0012545361170725189 -0.09809725607198247 -0.008228983483162505
0.0011734692198651225 -0.09754602183513009 -0.008013676824892596
0.00018433910951438925 -0.0977352155635719 -0.00719808478692599
0.00010284852581701753 -0.09718498650502524 -0.006982670862119927
2.1266297707864257e-05 -0.09663413865819478 -0.006767014682545952
-6.040772949519879e-05 -0.09608267097865814 -0.006551115839314309
-0.001045089247118089 -0.09627568722719965 -0.005740416152211186
-0.0011271830222132073 -0.09572522617909945 -0.005524413868039507
-0.0012093690214604047 -0.09517414674302346 -0.005308168926888318
-0.0012916474003539236 -0.09462244787634036 -0.005091680919626501
-0.0022718970525798243 -0.09481926990471445 -0.004285854567392028
-0.002354591263068584 -0.09426857910644162 -0.004069266921048115
-0.002437378273119767 -0.09371727032215982 -0.003852436219734773
-0.002520258239030751 -0.09316534251102782 -0.0036353620540872378
-0.002603231317450161 -0.09261279462986563 -0.0034180440138212587
-0.0026862976653788118 -0.09205962563314823 -0.003200481687729656
-0.003662769854006806 -0.0922634994339464 -0.0023998066072481727
-0.0037462486558162283 -0.09171134490830132 -0.0021821492736613657
-0.0038298211428332563 -0.09115857071981673 -0.00196424767120576
-0.0039134874728556646 -0.09060517582476948 -0.0017461013884494947
-0.0039972478040358195 -0.09005115917709125 -0.0015277100130361432
-0.00408110229488165 -0.08949651972836176 -0.0013090731316821314
-0.0041650511042576055 -0.08894125642780215 -0.001090190330174351
-0.005138059744729834 -0.0891538282864166 -0.00029482321093576846
-0.005222417881758923 -0.08859958837331189 -7.585047204514139e-05
-0.005306870749231321 -0.08804472607338659 0.00014336816351134818
-0.00539141850680383 -0.08748924033768263 0.00036283311016302444
-0.00547606131449227 -0.0869331301148834 0.000582544783270994
-0.00556079933267227 -0.08637639435130698 0.000802503599130644
-0.005645632722080601 -0.08581903199089991 0.0010227099749746116
-0.005730561643816023 -0.08526104197522999 0.0012431643289751715
-0.0058155862593403385 -0.08470242324348012 0.001463867080247011
-0.005900706730479377 -0.08414317473244104 0.0016848186488497008
-0.005985923219424039 -0.083583295376505 0.0019060194557906085
-0.006071235888731458 -0.08302278410765879 0.0021274699230273975
-0.006156644901325739 -0.08246163985547689 0.0023491704734707186
-0.00712804591120389 -0.0826929451687006 0.0031382240688621887
-0.007213862595668835 -0.08213284856526515 0.003360006752982536
-0.007299776034086339 -0.08157212048136014 0.003582039485813482
-0.007385786390176424 -0.08101075984843992 0.003804322690469375
-0.007471893828028792 -0.08044876559554687 0.004026856791019773
-0.007558098512103664 -0.07988613664930405 0.004249642212491994
-0.007644400607232982 -0.07932287193390897 0.004472679380873951
-0.007730800278621386 -0.07875897037112628 0.004695968723116811
-0.007817297691847441 -0.07819443088028122 0.0049195106671378885
-0.007903893012864316 -0.07762925237825247 0.005143305641822998
-0.007102549663769664 -0.0762469676044562 0.004804503934553117
-0.007189127638963469 -0.07567814317164945 0.0050292388211149175
-0.007275804109346168 -0.07510867161733348 0.005254229376685515
-0.007362579243092582 -0.07453855183658586 0.00547947603780502
-0.007449453208760712 -0.07396778272196736 0.005704979242007857
-0.0075364261752925155 -0.07339636316351444 0.0059307394278255154
-0.007623498312015392 -0.07282429204873259 0.006156757034789739
-0.007710669788643071 -0.0722515682625886 0.006383032503435138
-0.007797940775276707 -0.07167819068750364 0.006609566275301987
-0.0069893357266671285 -0.07026056741248327 0.006273670277304022
0.020138234118754622 -0.10632234215764261 -0.026865618335019464
0.020065592655182707 -0.10575517796419243 -0.0266540426278353
0.01999286628944183 -0.10518735087839651 -0.026442219634383063
0.01992005487259657 -0.10461885973740859 -0.026230148920872803
0.019847158255362846 -0.10404970337566083 -0.026017830052499663
0.01977417628810707 -0.10347988062485614 -0.02580526259344032
0.01970110882084508 -0.10290939031395996 -0.025592446106850603
0.019627955703241107 -0.10233823126919236 -0.025379380154862047
0.019554716784606574 -0.10176640231401998 -0.0251660642985789
0.019481391913899415 -0.10119390226914804 -0.02495249809807551
0.019407980939722652 -0.10062072995251192 -0.024738681112392885
0.019334483710323702 -0.10004688417926946 -0.024524612899535808
0.02029656434541252 -0.09870896506434168 -0.02497917884092879
0.020223248811036848 -0.09813131470441155 -0.024764254233611033
0.017062173564451943 -0.09984201815306873 -0.02255836599043079
0.014963783922402857 -0.10077501215969781 -0.021040302751727608
0.013886617830265652 -0.10095446048818318 -0.02018158883225843
0.011826939295100758 -0.10187210470482147 -0.018692024805309154
0.01076830625772529 -0.1020468493793705 -0.017847656652170946
0.009715612612829938 -0.1022206136601766 -0.017008025772178498
0.009638421778451145 -0.1016621802039642 -0.016794938334293713
0.008591235971358274 -0.10183663402688725 -0.01596012461764859
0.007549895881360458 -0.10201011399427476 -0.015129971090992206
0.0074718582566351555 -0.10145436154935775 -0.01491688238337549
0.00643594402618114 -0.10162852156547658 -0.014091474525942754
0.00635744620510767 -0.10107378486793653 -0.013878268068256733
0.0053269200328413535 -0.10124861721211845 -0.01305757202621996
0.005247966847690161 -0.10069489272353402 -0.01284425094562855
0.004222791273950838 -0.10087038975744711 -0.01202823317450133
0.0041433875065128856 -0.100317673956512 -0.0118148005602359
0.003123525409519934 -0.10049382812316032 -0.011003427821397599
0.003043675791713829 -0.09994211750558837 -0.01078988672524231
0.002029090383801807 -0.1001189213283255 -0.009983126082508648
0.0019487995982727102 -0.09956821240675551 -0.009769479519279284
0.0018684182730989984 -0.09901688248005147 -0.009555592038193922
0.0008587271028865084 -0.09919594779221377 -0.008753549283534307
0.000777908951506534 -0.0986456185772325 -0.008539559727179541
0.0006969998146478251 -0.09809466979887094 -0.008325329260312847
-0.000307823624409162 -0.09827598091749795 -0.007527977931032853
-0.0003891652813448332 -0.09772603186023396 -0.007313648749243312
-0.00047059836380050624 -0.09717546467714855 -0.007099078668047182
-0.0005521230260019938 -0.096624278325524 -0.0068842672810707495
-0.0015524417288149406 -0.09680943757755744 -0.00609172701780028
-0.0016343949201130942 -0.09625925242626354 -0.00587682066628184
-0.001716440125946933 -0.09570844954391591 -0.005661673024487307
-0.0017985775013701077 -0.09515702788957586 -0.005446283685818593
-0.002794408390856873 -0.09534601845308999 -0.0046585357872953315
-0.0028769703269612146 -0.09479559946203994 -0.00444305521116245
-0.002959624862232002 -0.09424456313639021 -0.004227332958021024
-0.0030423721525416475 -0.09369290843698014 -0.004011368621055611
-0.0031252123541125054 -0.09314063432231548 -0.0037951617925372216
-0.003208145623518066 -0.09258773974856174 -0.003578712063820738
-0.004200161063621116 -0.09278379545621121 -0.0027960486720898514
-0.004283515484188732 -0.09223190995655386 -0.0025795122752889643
-0.00436696339791344 -0.09167940544332318 -0.0023627330038903382
-0.0044505049621812315 -0.09112628087447472 -0.002145710449039967
-0.0045341403347313874 -0.09057253520562372 -0.0019284442009658564
-0.004617869673657848 -0.09001816739003887 -0.0017109338489749715
-0.00470169313740984 -0.08946317637863527 -0.0014931789814511265
-0.005690215894729719 -0.08966793747309987 -0.0007157636430579484
-0.005774457361603411 -0.08911396445143233 -0.0004979271212994796
-0.0058587933748194265 -0.0885593696917436 -0.0002798461160684884
-0.005943224093634736 -0.08800415214675736 -6.15202155489214e-05
-0.006027749677664229 -0.08744831076684384 0.00015705099300075687
-0.0061123702868817326 -0.08689184450001344 0.00037586792325020046
-0.006197086081620826 -0.08633475229190962 0.0005949309897995414
-0.0062818972225761605 -0.08577703308580276 0.0008142406081823039
-0.006366803870804197 -0.08521868582258302 0.001033797194867736
-0.006451806187724438 -0.08465970944075416 0.001253601167263807
-0.006536904335120233 -0.08410010287642608 0.0014736529437194557
-0.0066220984751400175 -0.08353986506330893 0.0016939529435275047
-0.006707388770298195 -0.08297899493270566 0.0019145015869273252
-0.00679277538347621 -0.08241749141350543 0.002135299295107279
-0.007780034559372248 -0.08264263239427547 0.0029062451441065618
-0.00786583781564 -0.08208217363810491 0.0031271162598525692
-0.007951737810720727 -0.08152108299315591 0.0033482363965621764
-0.008037734708308791 -0.08095935939019203 0.003569605975610568
-0.00812382867246822 -0.08039700175756309 0.0037912254193244177
-0.008210019867633533 -0.07983400902119817 0.00401309515098397
-0.008296308458610832 -0.07927038010459914 0.004235215594826314
-0.008382694610578972 -0.0787061139288335 0.004457587176047745
-0.008469178489090526 -0.07814120941252778 0.00468021032080676
-0.008555760260072806 -0.07757566547186018 0.004903085456226419
-0.008642440089828965 -0.07700948102055416 0.005126213010397285
-0.00782498734160332 -0.07562965166349134 0.00480445346609254
-0.007911641080165524 -0.07505981551068475 0.0050285277813470475
-0.007998393456215988 -0.0744893307164261 0.005252857159198959
-0.008085244638268402 -0.07391819617256695 0.005477442035400931
-0.008172194795220467 -0.07334641076843318 0.005702282846698631
-0.008259244096355214 -0.07277397339081804 0.005927380030833873
-0.008346392711341799 -0.07220088292397447 0.00615273402654723
-0.0084336408102368 -0.07162713824960804 0.006378345273580915
-0.008520988563485293 -0.07105273824686992 0.006604214212681786
0.020001880056163795 -0.10756852815541662 -0.027046132215199636
0.019929655203892394 -0.10700240902016328 -0.02683570946456082
0.019857346034928586 -0.10643562898645881 -0.026625041062324495
0.01978495240153666 -0.10586818689630881 -0.026414126578071684
0.019712474155635762 -0.10530008158901191 -0.026202965580377435
0.0196399111487984 -0.10473131190115201 -0.02599155763680755
0.01956726323225 -0.10416187666659027 -0.02577990231391608
0.01949453025686737 -0.10359177471645709 -0.025567999177241618
0.019421712073178055 -0.1030210048791442 -0.02535584779130534
0.01830472708192757 -0.10318888026450995 -0.024497169639871363
0.018231379583991097 -0.10261917641206628 -0.024284876172947
0.018157946303617695 -0.10204880627125368 -0.024072334421467056
0.01912958425361788 -0.10073122312962404 -0.02450475100956362
0.01905633777400695 -0.10015709618586963 -0.024291351809293538
0.018983005181859386 -0.09958229426732135 -0.024077701725342127
0.01890958632522799 -0.0990068161829735 -0.02386380031502039
0.017789487882661936 -0.09918692021120615 -0.023005886106217066
0.0146177413189168 -0.10085742452568311 -0.02088812003552032
0.013523841982403945 -0.10103002158739266 -0.02004938801358558
0.011430802361252573 -0.10193438268448321 -0.018598712595974898
0.010355727821253435 -0.10210239448467046 -0.01777398062935015
0.010279092277600932 -0.1015419830141335 -0.017561521543845326
0.009209652298586307 -0.10171072084209593 -0.016741543392294223
0.008146198976070607 -0.10187851408650597 -0.01592615542591136
0.007088682180984046 -0.10204537065680275 -0.015115319208933331
0.007010783582370117 -0.10148930265135636 -0.01490300428080732
0.005958773171547804 -0.10165687327781514 -0.014096814957665571
0.0058804049964943095 -0.10110181779417357 -0.013884391928925655
0.004833862614660317 -0.10127009452014835 -0.013082816330415414
0.004755029776998931 -0.10071604805149453 -0.012870288235346361
0.003713917415550022 -0.10088502300480476 -0.012073293495430737
0.003634624777828138 -0.1003319820611129 -0.011860663331331456
0.00259890477096289 -0.10050164745301915 -0.011068216883734439
0.0025191571450600136 -0.09994960856096363 -0.01085548761139199
0.0014887921659594572 -0.10011995668515805 -0.010067557186237142
0.0014085943136955548 -0.09956891638802196 -0.00985473173039475
0.0013283060265828761 -0.09901725471207729 -0.009641666282615424
0.00030290400448909627 -0.09918989447721743 -0.008858366600705936
0.00022216990059556463 -0.09863923043961001 -0.00864520828038512
0.00014134490584441495 -0.09808794646167729 -0.008431809985361971
-0.0008791210297999508 -0.09826286202259804 -0.007653115051898557
-0.00096038746765989 -0.09771257471985323 -0.007439627164476104
-0.001041745246495862 -0.09716166891110939 -0.007225899323236057
-0.0011231945203911409 -0.09661014355300768 -0.007011931123399817
-0.0021390966667421685 -0.0967889344377155 -0.006237969139497479
-0.0022209833358621534 -0.09623840725873756 -0.00602391502614863
-0.0023029619448287075 -0.09568726196468769 -0.005809620579390717
-0.0023850326485697626 -0.09513549751398007 -0.00559508539423792
-0.0033963881447689748 -0.09531814679915535 -0.004825837949291062
-0.003478892218718388 -0.09476738201509666 -0.0046112205066042855
-0.0035614888269377143 -0.09421599950860646 -0.004396362354975369
-0.003644178125190023 -0.09366399823987129 -0.004181263089218457
-0.0037269602695882975 -0.09311137716674259 -0.003965922303237751
-0.003809835416596158 -0.09255813524473008 -0.0037503395900249925
-0.004817334488575187 -0.09274787149412694 -0.002986114997420908
-0.004900639559888176 -0.09219563566903743 -0.0027704545410742742
-0.004984038069006436 -0.09164278043743765 -0.002554552192614523
-0.005067530173222812 -0.09108930475662166 -0.002338407544841631
-0.005151116030183173 -0.09053520758154182 -0.002122020189641166
-0.005234795797887881 -0.08998048786480228 -0.0019053897179814872
-0.006238437587419682 -0.09017731264313245 -0.001146189092185862
-0.006322543832376126 -0.08962360545570278 -0.0009294853932901859
-0.0064067444189707945 -0.08906927717713758 -0.0007125386187230853
-0.00649103950602678 -0.08851432676183738 -0.0004953483592693431
-0.00657542925272378 -0.08795875316185414 -0.0002779142047950045
-0.006659913818599289 -0.08740255532688512 -6.023574424432465e-05
-0.006744493363549417 -0.08684573220426597 0.0001576874343626744
-0.006829168047830014 -0.08628828273896405 0.00037585574393272925
-0.006913938032057726 -0.08573020587357202 0.0005942695983021384
-0.006998803477210824 -0.08517150054830094 0.0008129294122390662
-0.0070837645446305 -0.08461216570097374 0.0010318356014465957
-0.007168821396021624 -0.08405220026701818 0.0012509885825649492
-0.00725397419345386 -0.08349160317946047 0.001470388773174347
-0.008256056417869681 -0.08370710301881598 0.002223313870164223
-0.008341634113249854 -0.08314754261246668 0.0024427795261443286
-0.008427308184475707 -0.08258735204066239 0.0026624923398458067
-0.008513078794443671 -0.08202653023828421 0.0028824527290197133
-0.008598946106417524 -0.08146507613781145 0.0031026611123592673
-0.008684910284029457 -0.08090298866931503 0.00332311790950221
-0.008770971491280949 -0.08034026676045058 0.003543823541033775
-0.008857129892544044 -0.07977690933645148 0.0037647784284888797
-0.0089433856525621 -0.07921291532012226 0.003985982994355403
-0.00902973893645112 -0.07864828363183146 0.0042074376620763465
-0.009116189909700728 -0.07808301318950522 0.004429142856053059
-0.009202738738175065 -0.07751710290861968 0.004651099001647341
-0.009289385588114 -0.07695055170219461 0.00487330652518464
-0.009376130626134266 -0.07638335848078626 0.0050957658539567685
-0.009462974019230325 -0.07581552215248016 0.005318477416224182
-0.008629601292963196 -0.07443526482294488 0.005014756743938198
-0.008716410328306973 -0.07386376401668987 0.005238424309483514
-0.008803318290520404 -0.07329161193277056 0.005462346764764814
-0.008890325348804268 -0.07271880745726628 0.005686524545735955
-0.008977431672745478 -0.07214534947371459 0.005910958089345469
-0.009064637432318029 -0.07157123686310385 0.006135647833539509
-0.009151942797884324 -0.07099646850386643 0.006360594217264703
0.019787202688844097 -0.10824633282646035 -0.027019063386294506
0.019715322925197953 -0.10768059757879006 -0.026809539822197248
0.019643359296675267 -0.10711420226611279 -0.02659977179892342
0.019571311656417845 -0.10654714573256946 -0.02638975888839351
0.019499179857224352 -0.10597942681960085 -0.026179500661527744
0.01942696375154937 -0.10541104436593926 -0.02596899668824354
0.01935466319150242 -0.10484199720760112 -0.025758246537452345
0.01928227802884691 -0.1042722841778786 -0.025547249777056635
0.019209808114999005 -0.10370190410733199 -0.025336005973947084
0.018076635774684158 -0.10386091283986765 -0.024497904737971254
0.01800362681075013 -0.10329159229213858 -0.02428652941739129
0.017930532510208513 -0.10272160629346258 -0.02407490703053594
0.017857352723353065 -0.1021509536764379 -0.02386303714397625
0.017784087300127344 -0.10157963327093031 -0.023650919323269237
0.01771073609012333 -0.10100764390406555 -0.02343855313295401
